#.PCD v.7 - Point Cloud Data file format
VERSION .7
FIELDS x y z
SIZE 4 4 4
TYPE F F F
COUNT 1 1 1
WIDTH 1079
HEIGHT 1
VIEWPOINT 0 0 0 1 0 0 0
POINTS 1079
DATA ascii
-0.54172789492 -0.11422678875 1.96055248016
-0.474262116425 -0.138102548 1.93359221191
2.71774343748 -2.50836761802 1.03564176203
-0.214998376798 0.206171146776 1.99478668454
4.09529810732 0.472782423124 -0.951827710135
4.66098948306 0.0138716436184 4.65998628009
-1.81779378081 -3.8630436229 4.50620429527
-1.8116204438 1.53493857794 4.69267913602
2.60085664026 -4.13440722141 5.81545162918
-4.68293208442 1.28375863304 4.38440974406
-0.342049995439 -2.27979289545 -0.851416100274
-5.28441018054 1.48632268715 2.40406073651
6.04710500234 -2.65649327423 0.839338409987
-1.6700922999 -1.33172085558 1.60069229095
-2.49489142722 1.21783561782 -3.00988522936
0.52527715625 -3.77675206769 4.82687604673
-0.805530420193 -0.807651956305 0.433256630896
2.60131085557 -3.80089926443 -1.36484783015
-1.52043061503 -0.0500721204886 5.55481289284
5.48778280939 -0.337978113583 -1.35527518918
0.150851992028 0.447923088561 1.71546244749
-1.66644489429 -1.60196281675 1.73164284896
2.58381665514 -1.43961756319 1.55580578843
-0.506789338856 0.837787617073 1.95355345941
5.79429529739 -1.09607890171 -2.17483300165
1.93114706343 1.44257059288 4.71732359877
-6.84380439869 -5.97271061924 0.340082562756
5.82065469459 -2.13010618015 4.23962184971
-2.55500491738 -2.1951460837 0.0152972346373
-0.493967029798 0.556618262169 4.18241454696
2.56458997424 -1.6649834306 -0.354847220256
1.93626760747 -1.34117087447 -5.55459690309
0.0135757021172 -1.15361016966 1.71515408961
-4.65174197214 3.36573549297 -8.41213000412
5.54592236154 0.250326482208 -1.83319626597
-9.31824852906 -6.60295122461 -4.25829267772
0.197080693159 0.077785429824 1.71688022918
-1.35565720052 -2.57854961745 -4.84042843093
3.32149645257 -0.178106052294 1.4846505896
-1.58846070647 -0.857766581111 0.493212625865
-0.971480129694 -3.01414151637 0.441647935041
3.10240767277 -3.80401463439 3.10934322552
4.10326381981 -0.812330201214 -2.7159682181
-2.47634854923 1.57614815317 4.4462320243
2.24229635255 -7.07091023882 5.37262032756
-6.23680394546 -2.16423549945 1.78576797563
-2.87437252576 1.15681883069 -4.75752553312
3.72143101396 -0.956052644398 -1.27943768032
3.12932075938 1.8848585152 -4.05333400179
4.04016998251 -0.73364316989 -4.2631905374
5.3362604997 0.637497794775 -1.15675561239
-6.12196201274 0.12506452803 1.64492242494
5.58577154696 -0.182278591498 -1.73981549221
-0.659302124848 1.25142018757 4.05467411902
0.461669126515 -0.734760018574 1.49764808711
-0.556324142102 1.27395613968 4.45740213659
1.66230420969 1.13572494555 4.43855648821
-3.14577718429 0.154733372247 4.52947425685
-2.27839104958 0.559304785858 0.613182571158
-3.26071334584 -1.72527261721 -4.6899863215
-4.14292800185 1.46374217992 1.61386708523
0.145628161808 -0.203876223777 1.54541717796
-1.4084656731 -2.23634350406 1.35731673726
-1.31463431388 0.604266986256 1.11380158115
5.72559028755 1.04725447881 0.402928079485
-6.45206902553 -3.28665870419 -0.431377237191
-0.213661451115 -0.0474335136781 1.29089921878
2.73964165367 -0.755185219708 1.35036398508
-1.01026617526 -0.746895125527 1.80352780957
-0.488552133446 -1.85440243543 2.68595970329
-0.64672772349 -1.52546968876 2.18372999303
-0.496040213102 -1.23269582497 2.03934108215
-2.31723881902 -1.86635358996 -5.12382784961
3.78737505668 -0.478120924059 -3.42179551899
-0.351633238702 0.332579161004 4.98560164211
-0.97200104489 -0.389211646803 1.74057194154
1.42639235475 -5.26715144163 -1.0326835875
3.4858223279 -1.33277259102 1.70047368688
5.32096657666 -0.52901410992 -0.078847472944
3.55007567654 -2.91845054719 1.05294292671
3.02552355334 -0.147792948362 0.233411710143
0.0655037337053 -1.63601397689 1.4761630945
-1.15708102105 0.0306129366984 2.01509975726
-8.13493193491 -5.0278497393 -4.37566796253
2.17341589626 1.79820584409 -4.80185488996
-1.81811219788 -2.15713541493 5.86555441984
5.14596352854 0.162715934227 -2.23788405276
2.87086025882 -0.26287497281 1.36221479266
1.86178463257 -2.2500679551 -1.54280058482
3.15589436882 -1.02766473496 1.56455543503
-2.39946629276 -0.447242459247 -0.211558482087
5.34306524351 -0.456578118544 -0.372987789866
1.75184308259 -0.710355363254 -0.744175955211
-4.31034055574 -1.00236837985 -3.64461020955
-1.73087853861 -3.88574859961 4.46440394445
2.30366367712 -0.79715461521 -0.37922755438
-0.733087377548 -0.353220076985 1.30991642966
2.66854537223 1.84820668502 -4.94976382842
-0.223312117708 -2.27412883218 -3.47988186445
-4.17583518682 -2.71026691707 -3.83628325023
-2.37429085904 -0.770431219219 0.230452165851
-0.604623699151 -2.55489085933 1.20757680077
3.09576850805 -0.536208304643 1.36831592844
4.60287217067 -1.14247843437 -5.68118935384
2.3939276784 -1.02347261464 -2.18688349411
0.466202711129 0.349346578568 1.88045012364
-4.10530543943 -2.36483060522 1.89310885586
5.33330719337 -1.61429234719 -1.07807862861
1.59810326756 -3.00763453778 -2.90021498988
3.45794349436 -0.644840024281 -1.00760326028
1.6682012392 -1.98042240916 -2.85531575777
-0.96670261778 0.616870787966 -1.25577161571
-4.20171076738 0.624312372602 -2.40151434047
-7.0156028092 -5.64703093399 2.23617216489
-2.66578497703 0.678206579153 -2.66845079331
0.65289399262 -0.720663499408 -3.98577335583
3.38771704497 -9.39438322833 7.09188124175
3.63085497248 -0.255316351162 0.168463244927
3.03370778168 -2.34721954408 -0.171241706729
5.03082395722 0.123058893345 0.0363841711063
1.80883259834 1.3718542268 0.703660188262
1.66671465854 1.37205776596 0.216040556666
3.62070766767 -0.829756788253 0.185342774331
1.45978928908 1.49584388854 0.180561361086
1.82932059288 1.36221364809 0.972006065255
-1.57002508824 0.158563948834 4.43889793711
-4.06738793595 1.57820138693 4.59420060934
5.09370479365 0.569161292908 -0.0640241286931
0.848809755936 -0.912661965422 -0.772028498397
-2.4524563555 -0.605214337578 -4.52296999097
3.33606344079 -0.663202808531 -0.642647700956
5.68576801018 -2.16829882598 -1.82172861996
3.69501958346 -1.06128075925 -0.944995002572
3.54699034331 -3.47730215095 -3.73637648847
5.76510701769 -0.496858022917 -2.16693582137
2.26216968228 -1.55624420536 -0.397032008713
-1.7835385759 -0.112550587827 -2.22812950956
0.216059918057 -1.53074999692 -3.36198648074
-6.4222748226 1.35376231932 -0.468901831555
5.15257012872 0.504020423221 -3.22589361733
-3.76999286712 -1.31068318213 -4.48545711033
-3.53385934414 -4.26922304267 0.0479313141538
4.50595755501 -0.626505084916 3.79287684464
3.24397615453 0.757467983484 2.07963803687
2.4666683132 -0.896061652317 -2.50924656566
1.71986838663 -1.19789782753 -0.82474840282
0.105919745591 -1.12420185726 1.18454727518
0.169810452113 -1.02131721456 -0.843657939564
0.347440911806 -0.873122099182 -0.833691368923
0.103210389162 -0.593219105055 1.42802953948
0.0820053259747 -0.221061329045 1.54394783156
-0.210284202202 -0.0526538967977 1.28496244943
-2.41852221572 -1.9795218305 -4.86593674161
0.327637940294 -2.84557354823 -0.719027712425
3.04328913457 -2.34767253651 3.05543296061
2.58086547913 -0.260422695856 -0.894249278947
0.435603387118 1.66207903318 3.67802260536
2.3009961168 -1.49454782573 -0.957372653289
3.12508976758 -0.203789537775 1.73663707523
0.0945187848383 -0.263998206121 4.196646647
0.334769395756 -0.836565143487 -0.795159503136
1.4779692584 1.51739890886 1.22632505497
-1.42128299245 -0.975055792298 -1.13610283673
0.890439305594 1.39536329849 1.54612875218
-6.75812182168 -4.77025388821 1.40133267952
-2.47036866613 -1.98641608307 -0.882792034304
0.00292788881631 -0.738402172121 -6.4949386916
-0.485352508642 -0.855932197932 1.87235835531
0.592308725806 -3.45450455787 -3.37255210389
-3.42829741522 -2.24671597946 -2.19308097405
5.64384001788 0.367982094498 -2.92050066359
-1.06778768171 0.978695965541 0.620710575265
2.47224755505 -1.59406598221 -0.448364099643
-5.7981506295 -0.236814945535 4.05334285764
5.42049764798 1.03719841056 1.65626442138
0.496817493728 -0.324866192812 5.09453786505
4.11064450636 -4.25804939837 4.82778833509
3.60759583907 -0.851900831167 -0.504191733113
7.97961761823 -6.07577735873 -6.77753852578
2.69640691189 -3.74530756249 4.37526793553
2.77173589955 -3.25129977946 -2.05363582129
-1.40142867712 -0.360810193771 1.7620351904
3.59232681514 -0.14047699505 0.211095634083
2.0244625792 -1.58328659662 -0.527218547767
-1.92371452226 -4.91059085567 5.805567819
5.23231595958 -0.310241534053 0.174239991154
-6.18720617548 -3.04139138217 1.01880987306
-5.51157419179 -5.36441205819 0.722068653655
5.44438296705 -0.390377135557 -2.86825885884
-3.77017256339 1.55159215946 4.57490560274
-2.41368537203 -0.707399833118 -0.312846277915
-0.090458488442 -2.89833366446 -4.51034063516
-1.63392789935 1.11052962469 -3.07538540606
-6.21744063321 1.46094823969 -0.168224778668
-4.79103902624 0.103492337615 5.98907318371
5.56727360047 1.21274810154 1.07523195266
1.20830929718 -1.80901913349 -3.28419076358
3.05752347477 -0.884700365572 -0.318154272825
1.66884212888 -2.0668280074 -3.25251597328
-2.64040436628 -1.45227577047 -2.63863412194
-2.41808922682 -1.64669121338 -2.87174323024
-3.389351067 1.3509031754 1.24383622626
-5.18567216128 1.62852812566 0.0370594272162
-5.12222950534 1.63409705791 0.409624397583
-4.82363050173 1.68692850885 0.227632701998
-2.35336175007 -1.58956323502 0.237577377545
-2.33135193529 -1.49082409121 0.4380477209
-0.440031493711 -0.94250912842 -1.01844694259
0.445153269196 -2.96144705535 -4.68417027081
-0.287751515747 -0.477606215547 1.72679707283
-4.13199139575 -2.30060026289 -3.00491093085
3.79943506107 -3.43739872558 1.28386959569
3.56747249561 1.06269026244 4.98459158602
-1.58525076983 -0.0446707093256 4.45020117513
0.669784364315 1.75137713301 -5.25024736001
-1.50919200973 1.07447488255 4.13907185471
0.754646510601 1.61395563629 3.64319234035
0.227173479468 0.675249641657 -2.53890842363
1.71879886721 -1.26425594792 -0.699697540833
-1.9296912037 -2.03409312312 -0.284749795707
-6.03603610539 -3.01023692223 -0.379387664303
0.731142690865 1.0623919744 -0.693458970571
-4.41444351047 -2.1311890803 -4.08250738359
-0.127588886309 -2.15153725173 -0.380566721601
-1.43116514056 -0.597058002329 0.619684841538
4.45897935186 1.48801463516 -0.819749621269
-1.12402027019 0.359121634876 2.00092970196
-1.74664730503 -0.0375632539885 4.25452436301
2.57714647478 -1.31185057842 -0.754058120819
5.98974392195 -0.480862492554 -0.523448921704
-4.19297910006 -0.519702372562 -2.88597435586
5.86772514991 0.133024840738 -2.67551647133
-2.52380706408 1.2442477249 -4.11114785964
0.178218218254 -0.12644218912 1.71307537427
-0.363332764219 -1.06519899197 -1.13982247085
3.39280798052 -0.992333318057 0.468785755394
-2.25971866649 0.510791971506 0.552405198794
-2.5176729092 -2.93982608007 1.43483858288
-0.840678372747 -0.622430281949 0.689935351454
-0.100245276938 -1.43039747354 2.2833583176
3.74567853612 0.475362015785 -1.35524462277
-6.22375257066 1.05704775855 -0.040810030214
-1.39622542235 -3.37115677315 5.30066585505
3.40112624148 -4.44112370178 -1.68271495575
-3.12358660177 1.39304236849 -1.70096790789
-5.1427068324 1.92377827909 -0.0136958991732
-2.71197086453 -0.901649392493 -4.68945274656
-7.53730511947 -6.15761090538 -0.304147057895
5.39536358522 -0.33468441168 -0.681783640945
5.42800777667 1.03209951794 -1.46933519364
-2.39089498946 -1.23195853222 -0.113555152492
-2.26299768159 -0.426046917224 0.815269615538
-0.283257226741 -0.598164945226 -0.239460723793
5.39899726954 -0.605895010641 -0.66191268015
0.34868926376 -0.171901349339 1.50417399611
2.66351006864 1.60770855166 5.3234891691
-2.45907019158 -2.01398621363 -0.716433851386
1.21645651798 -4.45221720639 -5.01291198152
0.988994205325 -3.23091133132 -5.28464744104
2.66870195153 -4.47225201584 -1.08689616904
-1.81379537759 -2.27376370069 -3.47003624796
-2.8312414226 0.701441072996 -2.68254588645
5.54722813905 -0.619433462816 -1.3421162553
4.11091936638 -3.36691684155 5.43253489741
3.12185686361 -2.43989677861 3.56727703175
3.13197383618 -2.38880223111 3.33303518856
2.71320768353 1.01267258125 3.7660042649
5.48875377583 0.620841286566 -1.07348044625
-2.34605736583 -0.507956127246 0.1886247601
5.69274872591 -2.41557977958 0.394250155798
-4.42225860164 0.197798342703 4.5218018661
-7.09310807776 -3.4766507488 -3.68111734464
5.50054325749 0.0776280515243 -2.37920148385
-2.82717979491 -2.45324702685 -1.93119066342
5.59937420043 0.125283912112 -2.12505583134
5.38143378545 -0.32561423954 -0.647391485564
3.4246466718 -2.05882791865 1.41317043864
3.27118933707 -0.207283772515 1.37079869323
5.60839491663 -0.576376641066 1.20233728661
-2.29926105063 1.43875255628 -1.00385378003
5.35345077087 -0.512913674398 0.260376711801
-0.0910859679272 -1.55807066773 1.77586550967
-4.21988157305 -1.7280016023 -4.47807589498
3.31183525633 -1.58390491669 -0.131724274285
3.75804175769 0.205213127049 -1.19669886589
-2.45705983356 -1.32015703979 -0.734405235265
4.9482471544 -0.938265545879 -3.04773602313
5.5283029685 -0.533780745463 -1.23756835354
-4.42320333988 -0.0305415608944 -4.95622127725
5.56318647115 -2.09470567415 -3.05506905498
5.04048342537 -1.20799685468 -1.18908653228
5.63520368252 0.221417893649 -2.30319640324
5.93599429657 -1.54256253318 -2.66402453628
2.38174288266 -1.09635154515 -2.22038178326
-3.37598272116 -1.76082091075 -4.99876429887
-0.280838244946 -2.12274283639 -0.541585977862
-0.304062590479 -2.49769835597 -4.02132436991
2.72055662398 -4.46643368142 1.11352630398
-0.987434054634 -2.38372253638 -0.623492643231
5.47992661825 -2.25713055329 1.6692242012
3.54833997961 -0.366243761638 -1.39881537524
2.78782968043 -0.697867442424 2.99264593522
-5.44079184487 0.328144567389 4.44217086258
-4.17863454669 -0.296941469066 -2.48419340038
2.88766394643 1.00235971315 -0.771609139917
-0.43544357182 0.3871928675 4.12742726795
0.000871769524829 -0.689087594475 1.72570149811
2.51495856016 -1.96045365749 -2.84053257356
3.67819157371 -0.164567185314 -0.18556038659
2.46527525604 1.20842288505 3.91971988891
-0.68021496045 -0.326212587212 -1.18224690071
-8.24047540327 -6.63737365712 1.75151478998
-4.027388046 -1.16091198352 -4.47047773931
-0.845919454415 1.14174676193 0.719021575965
3.40410843809 -1.43958565726 1.50622259694
2.92307480509 -2.13053132493 2.91660618348
2.57842912525 -0.465478611538 3.77875316715
-1.52751069776 -3.55518561599 5.47416450287
-0.653199127318 -2.80022927485 0.0858725607154
2.29477354469 -0.682657107047 -0.340237060882
-2.21499239061 1.39726245466 -0.210314488244
-4.01204263097 -1.90917513151 -1.84681927246
5.46996177008 -0.208285961574 -1.05354180364
-4.25444151882 -2.74631784838 -3.72596515116
2.42728212773 -1.61476778087 -0.392246141998
2.00161572216 -0.712026887869 -0.502100380018
-6.25984806749 0.495110699602 -0.310109235207
5.19965856157 1.15029360541 -0.613328212899
2.57627564039 -1.12257772319 -2.86362937522
2.6538825716 0.134562669045 -0.964249084403
2.57915013706 0.149841672799 -0.991854371497
2.16912140178 0.404683813194 -1.24534192241
2.07779797388 0.193972610919 -1.27714177725
0.195944502234 0.0685390008877 1.71817407574
2.55797740326 -0.0322313887115 -0.999163322217
1.59831188624 0.826810912737 -1.03891387443
-4.92379776704 1.11149259813 -1.61982782523
2.28553346891 0.424994648003 -1.15772772144
5.0645828679 -3.80902591077 0.286060304193
2.96800088391 -0.2557714027 1.62277824474
2.98230493918 -0.670425443679 2.4087994649
-0.912870338683 -3.51982969322 0.395636052886
5.28847579692 0.596012439519 -0.515293454207
-1.35526148432 -1.62386801063 -3.74347162607
4.06538910547 -6.7171338633 4.76499312223
-1.03785699761 -2.86332282208 -1.0354193081
-2.1171756025 -0.608031600034 -3.06706150321
0.0846688802438 -0.213043318959 4.23609762919
-2.15820796528 0.793488500161 1.84880950552
-1.16069793309 -2.09492303947 -1.18340632089
5.27879331793 -0.498959050309 -0.0291652864255
5.73167503425 1.10086834141 1.88502486564
4.34514595534 -3.83243822037 -3.96045057953
4.7967514825 -0.303805565144 -2.76128166456
3.8923227593 0.941803843482 4.92525784405
6.45444378245 2.48597771944 -6.06328385997
4.14609170259 -6.58587703632 4.07797838387
4.00584084935 0.931501787991 3.84999037558
2.79617944393 1.02718065859 -0.545847676836
-6.59620611788 1.51515348925 -1.10391500789
-1.64928307072 -0.267001204866 1.76376933725
3.58716654242 0.654712349798 0.965357630784
-1.34689355269 -0.701996477195 1.72612397756
1.57206638153 1.41883230357 0.753270420699
3.48364214781 -2.79165573937 5.06299412686
2.61582128825 -3.03540002033 -3.38611124563
3.64893796373 -5.07060966492 4.89766451025
-1.46946586852 0.273271089028 -2.35290987636
5.14259429306 -2.20651675061 0.501423698527
3.57644155715 0.761193203644 0.344956744931
0.0637221985054 -3.58105500077 1.75093196583
-0.989295500366 -1.15596736739 1.79393185819
2.71930797621 0.660494212342 1.72852378244
-1.53822600066 0.107345831574 4.91329202809
2.31436328301 -1.0059626985 -2.20364525833
2.63872488531 -0.238899102898 1.08461591614
-2.20973039255 -2.05907721965 -3.2004329117
-6.379874443 -2.1660910694 -0.148095928912
2.79146988043 -2.32962229575 -0.334183078687
2.67458393412 -1.57882090864 1.11669750379
3.16982068656 -2.00443825915 0.937521297603
2.55328675201 -1.50122469436 1.56286031852
3.64468730396 -1.21553968061 0.0886194369309
3.26369259196 -0.275701062392 1.36839013439
0.331449257023 -0.847027829453 -0.792845626264
2.3304713903 0.47952683263 -2.09486410559
-4.43998867072 -1.60226752925 -4.11414149575
2.8375113128 -2.61700594902 1.44110547417
-2.36600431223 -0.164578641743 0.234685524671
2.62904515587 -1.37748315149 4.52470072714
-0.373026552613 0.395039487209 4.27966675977
-1.85623782168 -0.0793884441895 -3.26718331512
2.77003393473 -1.80067494749 1.45384817597
0.350440173068 -0.85423623166 -0.814102135259
-1.52046883491 -0.837679816477 -0.295576967839
-3.82062240768 -0.850458802283 -4.58159323014
2.26263159877 -1.56000573474 -0.397997419317
3.26792857835 -4.14441328973 -2.87013587224
-6.28182845415 0.0405982595423 -0.391755422881
5.22079078551 0.988968117395 -0.64937007729
2.19205180821 -1.13927861047 4.41833901386
-1.4550793256 -0.774672646672 -0.64599102978
-12.4458840418 -9.90684092447 -11.3985153809
5.15981905119 0.877551227784 -0.498533188485
0.281316401968 -1.67453897146 0.157475802359
4.30647987359 1.22196307262 -3.26451682534
-2.35738009698 -2.65270521804 -4.24045612938
0.693877973643 -0.973360932212 4.22082951531
-0.649132296608 0.230631715498 4.21907223851
-0.320259381142 -0.0840452044536 4.26798609792
-3.83337609675 1.28436989657 2.74721422064
-0.473175486347 -1.62896046704 -0.36661287486
4.15604167347 -1.09999330271 -3.36341865981
2.42995831937 -0.990576817536 -2.42248087155
5.39720117229 -2.0365488529 0.989371703944
-0.319520933195 -1.8497038914 1.70145831746
5.69869235856 -2.26001669524 -6.10615743051
2.68878802346 -1.63284638596 1.21535458537
0.116738284391 -3.67054815327 -1.83211600604
-3.06729150939 1.49388785351 4.72705453285
0.0236919440035 -0.17239142254 4.20899609723
2.78458519294 -2.25379174321 0.819373311358
1.38978120343 1.17938824097 4.55209756148
0.0232637570016 1.43117551744 -2.00091708448
0.808435784603 -2.50620294449 -0.743306835427
-4.16967833776 -0.0769549633013 -2.53067514236
2.83989661151 -1.61668488045 5.00047465001
3.20672937304 -1.219459531 -2.44729021946
-0.290446510336 -0.415685321914 1.74992672848
-0.039584144445 -1.5362266836 1.70670342723
0.171506900437 -0.721742467758 -4.18920642897
0.0362999187785 -2.15563438733 -4.77599756209
0.647689814526 1.61402972507 -5.1982255912
0.579644729895 -1.18217708932 -4.50215951559
2.67835426816 -1.75327694814 1.11986137096
5.21773227614 -0.297083317485 0.224476335382
4.11644400606 -4.0917542201 4.52736658085
-0.279158037887 -0.0345313291518 1.318769524
-5.7123142279 1.39973470983 3.82776062042
-1.34360237589 1.106002793 3.21692410933
2.69449920966 -0.137303188674 1.4416347304
3.13009548995 -0.565975444787 1.41478891981
-6.25106184251 0.897848040932 -0.313123636668
-6.15213548074 -0.48537382896 1.57875064828
4.88019888006 0.0639257060179 0.297793934596
-2.44751634069 -0.0466737904957 -0.736023334893
-2.41745450319 -0.384366617307 -0.452385870262
-1.74509558512 -0.404708679511 5.06640153785
-2.61833295431 1.03884667497 -2.78554685395
-0.334291152464 -1.53783714399 0.920405811891
-0.0632068081166 -0.574739226703 1.72174806892
-2.61574688991 1.04629010192 -2.79342369178
-1.90554059127 -0.554411150815 -3.32250269953
-0.894273276929 -0.852639664218 1.9471455565
3.57855499825 -3.28961723766 3.38788322046
-2.71122048234 1.34457645854 4.2642878796
-3.97125352579 0.195273747534 4.98900342938
-4.15000019305 -2.6953228631 -3.79216496887
-3.90717404995 0.201735261384 4.93811536121
-4.03604574373 0.224427625285 4.81877043412
5.08551500597 1.07647688292 -3.09408864791
3.54441565211 -2.49465841495 2.68839940426
2.60341455487 -2.78091730241 1.50397082051
2.62348954714 -0.9250250259 1.19321519699
2.61801106555 -0.791182964317 1.6688634055
3.10949273031 -2.47763520679 2.62080151462
3.62715045776 -0.948279730279 -3.50104490023
2.64607699726 -0.342056809799 1.53514518408
2.65440676203 -1.84306300939 1.42391085266
-0.96280342652 -0.446668782543 -1.25627305354
-5.92715327909 1.33554900975 3.34678644671
-6.33383499391 -2.0453582503 -0.175648538292
2.88016096123 -0.123698925305 1.35472342922
-0.183866563817 -2.82085564092 -4.50611912348
5.36316119928 -0.351104799451 -0.524290929437
3.29816959461 -2.1902986394 1.33749183121
2.30859211588 -1.0448743627 0.128243121462
4.80734082092 -1.78514514015 4.54206084097
2.65360216956 -0.611431070033 3.74161721019
2.6728819086 -0.723207089012 1.47310079085
2.71099282955 1.02212035267 4.75601909214
-6.14210692533 0.490973276648 1.751249541
-0.754782950106 -0.482325396777 0.419698618192
1.54873647387 -1.65937780833 4.25006970322
-1.17684361601 0.0377869902 2.0083898497
2.92523141911 -0.538767270163 1.37133196987
-0.702440334613 -2.63860998171 1.23553486107
3.96063192109 -0.273070227253 -0.794751522026
3.22246955172 -3.42670901268 0.466224902528
-5.36279063156 1.49795285426 4.72377303203
-1.7108788962 -1.36045577463 1.58691292255
4.40952530428 -1.69765757971 1.85145206723
0.0466082486627 -0.425629438382 1.7250798883
5.47935148732 0.62186497934 -1.01467551588
1.18791767911 0.974098253276 -1.07882211404
-5.16368794025 -4.38371158318 6.33678118135
3.07492239729 -1.80164877121 5.15060939775
-0.0564626730168 -0.413066175956 1.71697279889
-3.64764534553 -3.17613619755 2.1157253267
2.61394222073 -1.38049380743 1.82764231643
0.0367798725764 -0.750576140037 1.71994661756
0.360654625181 0.712546193261 -2.48111537979
2.36701372988 -0.708054288643 -0.473886246443
1.52743082823 1.24858451444 2.48987933557
-0.264616278427 0.0116657801435 2.02581397009
-2.0835857688 1.39839095815 1.39605673799
3.21746080284 -0.283571792201 1.41851431999
5.45537503635 -5.59374947844 1.07197420058
2.39330512331 -3.67171099077 3.2761416883
-1.48634561349 1.41683167886 5.50004429201
-1.77028499704 0.669146982557 -2.37273112801
3.21855933868 -2.20065207581 0.449849480862
4.1712984994 -0.448054071027 -3.3794685599
-1.19236618701 -1.65320368818 1.67250747483
3.1930328671 -1.32559301318 1.44192488258
2.02213524144 -3.71850001817 4.61407789334
2.65840923498 0.913391278822 -2.97601064053
-1.30638892107 0.705311050285 1.20162395448
-4.66737366849 -2.92959121582 -1.88608034926
0.137993356129 -0.29461584318 1.54270428943
-6.3307063091 -1.14037839248 -0.418402022642
-4.73005056097 1.6715847689 -2.17173973461
5.49290919884 -0.412690404388 -2.33093651238
2.72218035998 -3.44200703119 3.46152187554
0.1197976692 -0.307927899354 1.43609161877
-1.59548623508 -1.17857298447 -3.20153603907
5.4960220338 -0.45369701226 -1.12953388644
3.01012820531 0.092334016572 -0.428516024166
-1.4284115123 1.65172479309 3.14491418389
1.80148260286 1.29442696952 4.60960783259
-4.18055511873 0.384492100959 -2.39776527052
3.00140893623 1.05191487016 2.62200370649
0.24474477247 -2.97611823683 -0.699885584928
0.977332125165 -3.77188175338 4.50141320141
2.70763182146 -1.57315389452 3.24361219107
5.26683354076 -0.387471956865 -0.0467188558451
-3.97387792111 1.57575836524 2.45505777243
-0.209825379846 1.86683976924 -5.44752475452
-0.00873828564584 0.0866206247103 1.72051034159
4.50928841164 -1.02044933794 -3.04669949154
0.278292217173 -3.36219369725 1.41658500266
1.95064496403 -1.44343353421 -0.558680900813
-1.15024630787 -0.00648201400015 2.02089875707
1.46532144646 1.49238501393 0.677861984927
-2.24466127251 1.13231883615 3.44526755293
-3.34985850873 -1.25457163539 -4.82381635019
9.46644566037 -14.8181367093 8.21817995831
-0.879190974234 -1.13414141541 1.72973625667
1.16279022756 -0.840620123921 -0.865411968445
-1.45378106891 -0.653578386458 0.0116384778513
0.864700557683 -2.49748256099 3.18425950745
-1.52848150189 1.30416124693 4.93947891366
-6.22512159567 1.01209207028 0.0363440395694
1.67468208248 2.23532130101 -5.86231574334
-9.3878285737 -5.33686196011 -4.58127030148
-2.20430576564 1.85341680637 -4.30648275065
3.3776478163 1.09684642993 2.18729933496
-1.74367199727 1.27277847543 -3.40068206929
-3.12956122142 2.1077717608 -2.56570768103
-2.69562870237 -1.82206572554 5.8820871744
-5.85469023069 0.168454316068 3.91523508879
-1.0927733877 -0.639255335636 1.74343222786
1.73671273522 -2.21343264959 -2.12381665058
-1.54682440379 1.07611909148 3.16664479751
1.0862028348 0.375721046663 1.56159700565
2.10517909939 -0.913380022101 -0.463414586982
-0.110936751137 -2.74376569496 -0.625332721342
-6.15075017549 -0.851223782367 1.70529701622
1.41449325916 -2.49661099723 -0.835020778957
0.148404243012 0.538046070144 1.71761679338
4.77909677967 -1.16330299245 2.89242055885
2.82334194879 -2.33844505259 0.782383170371
-4.27903372211 -3.63704314945 -2.68397242655
5.61800720525 -1.83941602413 -1.24356247624
0.410053643296 0.331355464643 -1.52032250671
-6.086946226 -3.08953017374 5.54126773341
2.80890733971 -0.328292387299 -1.35138631354
2.69287025923 -2.19474091633 -0.282042322347
5.44214720527 0.125508111556 -1.17646547376
5.76091435001 -6.97266650929 -0.364069425751
5.68435250088 -1.56813924305 -0.130782003066
0.402678933394 -3.59191153827 -0.75918830443
2.16622279381 -3.09285865008 -0.376996150807
5.74548088073 -0.57866089824 -0.58601084982
3.69365217507 -3.34684894031 -0.973721073727
1.63036885861 -3.25396963897 -2.35546262436
1.76617604181 -1.20994523803 -2.79658105577
2.24716495145 1.65392199024 -4.45090534336
19.4458599441 -0.394076377724 -8.21880739935
-2.44797459975 -3.15524902388 1.53977612214
1.89261659989 -5.2751000028 4.61748420122
5.03249283417 -1.22414767198 -3.24801382212
0.367183902508 -0.972742599729 1.51711492632
0.881191830275 -2.91769047866 -4.06078616484
-3.70198553654 1.24158567197 -3.62000793888
5.97286295681 -12.7325383176 -5.92791499624
-4.42900621234 1.69550193596 -2.18408738584
-3.41966218177 -2.80165123607 -4.47149510036
-2.63588978662 -1.03084159347 -4.61102484869
1.27571694862 0.869178598373 0.391380421578
-5.77667319867 3.61083830587 0.245589632752
0.445111454226 -2.08432060167 4.97080835687
-5.54475692668 1.20739917938 4.41636127031
-0.894468226786 -0.819556087817 0.411062095591
3.71009188501 -2.9241995366 3.93455973666
3.1142516514 1.06558370483 -0.689275096284
-5.84665496268 0.177186949216 5.63876152208
5.38512310982 -0.359286803354 -0.61557260315
5.51668168773 -1.37687635511 -1.05251821364
-1.95243567115 -1.62054084202 -3.78028132382
-4.18437851651 1.27110938118 -2.17594915266
5.24657937357 -0.46931992214 -0.11936067742
0.189472673272 -0.441179502766 4.07945371341
-2.80595156114 1.68422409058 1.00023676952
2.604108029 -1.59768712683 5.06728692691
-1.84241925686 1.9203046639 1.78731250307
-2.14314175921 0.555110281767 1.76320038942
1.11527874887 -0.754608769359 -3.21133371696
1.63057475406 -2.82807592493 -2.3653914284
-4.26873187034 0.22923165176 -3.29096666543
-1.13549955316 -2.01288226263 -1.10061698732
5.59400618249 0.875427191984 -2.92057720371
-4.17878877072 0.0473164383602 -2.46373449023
6.02079717936 0.144956611049 -2.64046340977
2.42325099642 -1.14343857317 -2.2716797483
0.357587042426 0.357690275476 1.61181245878
-2.40720872293 -1.23061529045 -0.319868307531
3.02024570101 -2.94515826879 3.53901252933
2.63279106556 0.969031815382 4.52234406348
2.9834859375 -2.35733234008 3.54810867322
-1.49408274527 -0.589015739919 0.595203259764
-1.61224243416 -1.42847649859 0.755997760175
3.05456687262 -2.1162931771 3.62605807937
-1.58537019316 -1.03259094849 0.485333789775
-1.6651663607 -1.02460851305 0.954755535018
-1.30685704622 -0.347834214683 0.640932182057
-1.4243175521 -0.422001727354 0.624068072802
3.20567781348 -2.69375877419 3.23379086027
-0.831029620676 -0.355099378589 1.46370463231
-1.3044418 0.273341434905 1.14635322501
-1.36436500885 -0.756613608335 1.74880530059
2.52529724424 0.602741555723 -1.00033203048
2.05530849652 -1.39155412441 -0.751924231382
-6.27534816252 -0.115574836999 -0.235454382088
-1.26724509267 -0.544474262853 1.74934429981
-1.71464289647 -1.02469613795 1.7568772702
2.62263013584 -0.222985812715 1.5722901231
2.62982629395 -3.17694580691 1.20830043906
-1.67321923142 -0.720229641209 -0.0224369556778
-6.69687431062 -6.75929685865 -0.921114043669
-0.31818749934 0.45686463734 -1.39085578718
3.2733858694 -0.137083274995 1.91913805303
5.61270304017 0.224408055425 -2.75959490312
-4.2188784451 -2.14845954453 -2.60684711542
3.64085815485 -0.85765057399 -0.685725624191
5.03041047207 -2.64309077444 -3.31988030587
5.84573773209 -1.97255899845 0.954685234572
4.55058386721 -1.26623408561 -3.33918238175
-6.32424396943 -1.42052127522 -0.0548175282306
2.77313591319 1.02150271581 2.4123345573
-3.17850259349 -1.86971396186 6.22937310302
5.51131116543 -0.219220476455 -1.39188304522
-1.16871278267 -0.394479703985 1.7726338366
4.741446537 -1.26801701505 -3.16280121949
-6.35222162166 -1.68502179116 -0.128921296111
5.76639212475 -0.741697045409 -2.17289668697
0.00711730612194 -0.896795499475 -0.806983066315
-3.28846102371 -1.85084851726 -4.65117758303
-0.0248498950933 -2.34219513967 -3.50919701408
-2.53057836645 -1.69540839493 -4.61187077255
-3.60330537179 -3.46624303354 -4.72384173617
3.72657525358 1.12136097676 2.00139728804
-0.479926203443 1.43969870269 -1.397109652
-0.00748694312328 0.0647655009253 1.72281875099
-5.91799543214 0.304526861677 4.56414320415
0.514486250017 -0.264279845802 1.59590526424
-5.10636217804 -1.85169004205 -0.0466452749431
-3.94599638778 1.34659910061 -0.543262065798
3.74527841382 2.21064890505 -0.496848760727
0.413699825641 0.669434993882 -2.19646788002
-2.44851278497 -0.228691906327 -0.738573076594
4.77853568948 -3.14065162903 2.69585337544
0.862394288245 -0.770981630549 -4.09718809933
-1.16434924328 -0.814684699912 -3.67281670941
-1.4583710329 0.533057030024 -2.56179206538
2.91610617677 -3.36424036316 2.41186190786
5.39704819408 -0.862814936694 -0.510456616278
5.42920805274 -1.455417787 -0.498256870656
1.47531079775 1.07288465599 2.11130443373
-2.12070161295 -1.4605999304 -3.05994909293
-0.575473134343 -0.523025472364 -5.29044699509
0.813396479283 -2.05776017502 -0.518412806633
2.95802685985 -1.14256800858 1.41363289815
-0.0592698343065 -0.00862781499354 -5.28799267133
5.98298708673 -3.13232722522 -4.80764459428
-1.69190047598 1.60406146801 3.42038571287
3.35498114756 1.31703887172 2.76998648534
-6.05922995536 1.756236215 -0.0446423318416
3.09610970076 -1.38498685098 1.435533837
2.69174956451 -0.251290786097 1.46871142538
-4.07321097036 0.117170368918 -2.49268486832
2.67815203341 -0.631719411493 1.58222833125
2.6225509702 0.332896475445 1.97198370103
5.77063031809 0.900616505758 -3.40757862041
-0.669141172327 -0.463056686538 0.393454223397
-6.09680665148 0.493707618566 2.03732323554
-0.797426834364 -0.657313524047 4.88401898824
2.10455179622 -1.25124710565 2.06375270225
5.44257704153 0.121057988224 -1.31813197892
0.687960392885 0.433659888763 1.59643489865
2.78138283096 0.443104781722 1.24038794152
-0.441409183888 -0.703689413021 0.560060537854
-1.68288368857 -0.522787278954 -2.79122880782
-4.21518832065 0.137793931828 -2.89215357043
0.303678166531 0.731566326208 -2.49920398013
-5.86742169081 -2.91582235518 1.83849946549
-4.16663099464 0.383031530036 -2.39966989977
-3.90557304006 -1.8291197187 5.90271927808
5.20105299217 -0.47719347755 0.256435199722
0.089363476925 -0.782157793916 1.30533476119
3.25090509532 -0.153036750568 1.42112756522
3.63464886191 -7.57899786761 4.38653452039
5.11323493813 0.462265502438 -0.470196367266
5.26945029663 -0.36778321687 0.13183755754
5.41584703903 -0.548503886811 -0.660349216961
-2.27396143012 0.509945624217 0.620462877865
-6.13276116813 -0.141006510178 1.78627599577
-1.3826385716 -0.888890351739 -3.02982651704
-1.40337725599 -0.132617329639 1.75881179272
5.43334701121 0.0850377200397 -1.31974202381
0.670411962091 -0.48665315846 -1.15876744821
-0.772552066778 -1.46500467933 1.04611109214
-0.788423413506 -2.37381342148 0.0651397042056
-1.62540252677 -0.53067636659 1.76297927244
-2.95060940762 -0.87219511784 -4.34150830492
-2.00551860967 -0.508178838247 -3.14930044932
2.57659647357 1.10269982591 -0.297841266981
-2.06274642711 -0.744589192132 -3.76182563301
1.81367675409 -1.74802566372 -3.22364852122
-1.73447486936 1.21902901566 -3.35076508199
0.707454282706 1.02407577132 -3.91850574439
2.82280101518 -0.828662998396 -0.912620224708
-4.17364968798 -1.31407443726 -4.51885152968
3.38523475411 -0.45178585094 1.48519513445
3.27746554462 -2.16806485209 1.9083059356
5.44750174769 0.121276632477 -1.45328539036
5.12417719014 -2.45268037172 -3.1143403187
5.37772642824 -0.330673905818 -0.619468889823
0.19211905348 0.352675663505 1.70983850644
-7.0797338045 -0.216627961618 4.48806514425
-4.87549372972 -3.17762061821 6.02379481404
-1.43586325618 -0.23142464052 1.7590291398
-0.00738299427357 0.778757115578 1.18453757381
5.24627571005 -0.621220296023 0.18902998432
-4.43231881627 -3.91326467142 -4.40245151962
2.71169491587 -0.770535844326 -3.5886182241
0.365880732972 0.43390352705 -3.12558455492
7.30694599587 -9.21926773382 7.17113577837
-2.15425184075 -6.17911625703 5.51560167576
1.50615141261 1.34300542116 1.63106101192
1.59147178801 1.33360993683 1.74338297254
0.951958270929 1.61248423144 -0.124598590825
2.93266758613 0.507682846946 2.64357862081
-2.10755318715 0.551139006753 1.78672532538
-4.15691153542 -0.573755017128 -4.55423305928
5.50110021537 -2.96566126823 0.583102320475
-1.58758326318 -0.963810226035 0.457550931775
5.37606260686 1.11385685566 -1.07943622379
-0.730280180865 -1.34327516333 0.976831384986
-0.747492151508 -1.73414108631 0.97563123188
-0.604021052882 -0.920931722853 1.73533611436
3.15979724305 1.35548742743 2.18228045365
1.08468738947 1.27209317475 4.63297861284
-5.87490471974 0.215053202604 5.76661507258
-1.24014630411 -4.32392365032 -0.446053777694
-6.29750150751 -0.739610460066 0.0367462271034
1.92497357369 -2.16553430193 -1.40289511615
3.64693004789 -0.868314091036 -0.596332897188
-1.15491344157 0.0118460780183 2.04900730606
2.97214223872 -5.43184531807 -1.95368793511
3.42622200518 -3.21436843809 1.5618673356
0.149580632088 0.535566166444 1.71564063161
0.283425174963 -0.364921176409 3.9941098179
1.40106041727 -1.2914758904 -0.498886893755
5.42255212261 0.11499709841 -1.94316455731
5.54756503933 0.15339535356 -1.82639779848
-9.86245155629 2.12773163998 -1.15556042193
1.0412834712 2.01912124879 -5.65148784347
0.450429001106 -0.755393279472 -0.680564964115
-5.83422305503 -1.0795505885 3.77952591282
1.87096030574 -1.18711112201 -3.61960561839
5.39094944209 -0.608103752187 0.523040925423
0.637041737289 -1.59066254081 -5.86140756781
-0.490785673917 -0.961870689005 4.79988285586
-6.29393848054 -0.962285618328 0.0758686048127
-0.215140054154 -0.326115385186 1.82669099914
-1.50758817676 0.883883671192 -4.0882342244
3.72697421048 -5.17811525088 -3.32702086853
-0.418129320116 0.523333558546 4.41037106057
5.35554967923 -0.628684552047 0.459388417895
1.19674980922 -0.797679632778 -0.563043824929
0.398133562933 -0.247435332684 1.49801957713
-2.49099630363 -3.89588859143 1.36842949952
-2.19894335599 -1.2849725657 -2.99864126027
-0.00930759647119 -2.10901660732 1.70454542889
3.07011893973 -3.14782474696 -2.85836020385
-2.39324674859 -2.37306604618 0.799597661806
-0.263951396525 -0.0169500888347 2.00916441777
3.23695220081 -1.40901034314 -0.251715988431
2.32994155191 -2.90383733647 -0.862505832137
2.529433602 -2.78134034859 -2.98611050894
5.45508722559 -1.49751605673 -2.91409107919
2.20291768096 -4.586414817 4.56819851343
5.36389381827 -0.348674664542 -0.524650291587
0.128198067136 -0.25840164722 1.55496364345
-1.29225354189 0.459877699151 1.32577128816
2.33326870244 0.983281878398 -0.893149741805
-0.811651787333 -0.627440899082 0.00214941019945
-1.27846514134 0.218802368717 1.05568913783
2.37402402943 -1.05771897845 -2.06891134167
-0.27445121702 -0.113304541724 1.26637838728
3.35570554839 1.07191136378 1.46530754987
5.6599657005 -0.507277548589 -1.70463262341
5.63782758384 -0.40076706327 -1.7084035904
5.6938542738 0.150345174836 -1.75289418042
2.16606314134 1.50378002712 5.80282455545
-0.0339127042318 -1.40822992835 1.6832883708
5.65324496428 -0.399962588513 -2.84848537933
5.65927486459 -0.329164390595 -2.86464911038
5.06332148401 -1.51129025866 2.52853110178
-3.21129971303 -1.44166920475 -4.46201513567
1.51252128331 -0.994694583206 -0.874605895507
1.15215341643 -0.866805838009 -0.854473952446
-4.38756513705 -0.611487508761 -4.35213850821
1.45083912532 -0.72628235866 -0.859018425705
3.81805277665 -2.28864828324 -0.33357622173
-6.62037804428 1.61522904965 -1.20809504879
3.09869589035 -2.8752252277 3.1919314642
4.67150029396 2.32789416573 -5.98588580735
-3.22980278498 -1.9585409771 -3.77077779458
0.125975952705 -2.86328851854 -5.98693996923
-3.99819084592 1.66452060041 0.283264669317
2.25683069173 -1.16411409036 -2.63840385197
-0.0522510052114 -0.391943106106 1.74183271563
5.71454228341 -1.16061108043 -1.70589084477
5.4339945259 0.319166730682 -1.93432553977
-2.13344769505 0.637077901494 1.11578519235
2.8153504237 1.30532025249 1.7517742407
-0.286662726285 -0.456586904696 1.7204541421
1.76969116831 -3.47281885844 -0.776791853286
4.69254487604 -8.59672646637 4.4558890432
1.14758901862 -0.705758221196 -0.829396487206
1.31340759384 0.093049935929 -3.13197033456
1.17097802614 0.864891472167 -3.68258076394
2.90216425411 -3.34439827697 -0.301917883536
-3.05613202803 -3.82836595774 -4.78669746185
-5.87875469894 -2.6383979647 -0.775072265138
25.6581950822 -0.501388388979 -7.30737974745
-3.37632209982 0.540196206354 -3.62509758455
2.78924542665 -1.0058672983 2.76775826072
-2.37764665637 -0.109073704809 0.0249813718371
5.71125725848 -3.61127965741 0.303409786938
4.02365509052 -0.834398023003 -2.24955327222
-2.39674456641 0.753646238407 -3.72604230624
-2.76937218935 -1.03958148529 -4.67532424676
3.15858710034 0.317220636416 -2.69069243609
5.61741398373 -0.398150888968 -0.751070988034
2.59756547726 -0.284802992962 -0.916946129306
-0.598473344063 1.44124613166 5.03089218631
-4.16138218329 1.13982087005 -2.39830294208
-0.560899037983 1.36767892925 -1.39232175531
-5.94744301697 1.27591480006 -0.529400972434
-4.90247896073 -1.58477959572 5.75177516675
-3.5504317113 -1.67447308969 -4.62933211578
-1.91844732527 -0.929900956599 0.733307498142
-4.36269190096 -0.508498977667 -4.06599123996
5.34773815837 -3.18717271257 -1.40341538214
0.829489494309 -0.774913075272 -1.17340303377
5.13480926842 -0.447772965599 -3.09813661286
3.70949695948 -4.46969270338 -3.39511176528
3.76115588975 -2.73302445567 4.45075995879
0.508273214675 -0.968928009528 -0.799819420309
3.89944526248 -0.885031522738 -3.47255563054
-2.03522109342 1.12463131121 -2.5332006111
1.20201801108 0.333339888413 -1.16730437245
0.374733601376 -0.863179292897 -0.852369420336
0.158689169835 -0.909986150475 -0.734821548414
1.48220125581 -2.5849903171 -1.95306109317
5.06760782244 -2.00714588053 6.77347022174
-0.824723172558 1.13098882884 -2.06561770752
2.14954640386 -2.42181598399 -2.53649582391
3.10928114358 -0.275912618512 -0.0750219174519
-0.00802326536718 -3.12830668221 1.26535130683
5.33425152349 1.01114448828 2.70551317943
1.024680579 0.0237327836326 -5.76079062106
3.18933644132 -1.43752725473 0.391885678765
-0.524739884588 1.87592571211 -5.65949061555
2.88985536527 -0.740602516396 1.38076213515
-6.28228146665 -2.83312568064 1.77905370799
4.09288029032 -2.14469498126 -3.00499093168
-0.709526500322 -1.2307790049 -4.42056268605
4.28849363462 -3.42480177195 -3.8339559374
5.57014081492 0.166239022373 -2.58338269338
-1.64506520759 -0.492419684596 -2.93431419069
4.88179760901 0.86561059082 -3.02498633738
-1.31903178879 -0.544496425618 1.75252165399
-4.69582912668 -3.10385397648 -0.0161191562406
0.243045251171 -1.45754298112 -3.45758324414
-0.430638872245 -1.67041412281 -1.37732658891
1.65066609566 -1.04670026137 -0.458117206538
3.03919713763 -2.29554476656 2.76466150556
5.76670860541 -0.258094574023 0.903579256153
2.35932633835 -2.28432822407 4.03124897362
-2.34528746283 -0.434097269954 -4.16215862336
2.83506974459 1.16427165441 -1.16078100051
-2.40591393807 -2.0809102947 0.824653040695
1.19461936887 -1.66965799014 -3.24937926265
-2.39350950531 -0.315984880827 -0.250213037821
-1.9316104912 -4.16417908124 5.83066345108
-6.59836128085 1.57121746708 1.82266660282
-6.27949393184 -0.638376895656 -0.10371462174
-5.93196323868 1.24345187581 1.16971713925
-2.61259663937 0.302579284426 -2.75955284356
-2.57654174912 1.37466113047 -3.31800482385
-1.37618685815 -1.28795774342 -1.15146192843
5.66515347566 0.0620762346584 -1.77997476901
-0.77399219069 1.31247129759 -1.19786693258
2.66506409109 -0.571445909855 1.78018034045
-2.27111386828 -0.283795526104 -4.28670782321
-3.02189053286 -1.68576769121 -4.68738243673
-0.68366668461 1.15516490105 -0.151174118099
-3.08009199685 1.39070480199 -1.20387868102
2.75057754215 -2.31139354379 1.44748346331
-4.31238351625 0.10158568439 -3.97626024724
0.177803271727 -0.105557010657 -5.12944969265
-2.49221717182 1.729970396 6.75886762914
3.73583816571 0.216057273244 -2.78321810929
5.26035899589 1.1134938799 -0.567484668486
1.97778246119 -2.60276470516 -1.37143643721
-0.0181017417079 -2.25329406151 4.1131618454
-3.62951542238 -0.771118456036 -4.14702371016
-19.5635647347 19.2986938192 13.4726795596
-19.4753409556 14.896882189 6.50573364215
1.53472464411 -0.571953965419 -2.1685301764
2.78037256583 -0.842850199694 1.7826193516
5.16855331732 -8.21022181626 5.09996300353
-0.187774745723 -0.588112634169 1.17091272681
-6.17826432996 -1.33952885604 1.5768104214
-18.1667285368 16.5706079283 7.93773264013
-6.48775708349 1.55888713515 3.52609571438
-0.892226111035 -1.26676475757 1.73966363649
-1.59572030736 1.56517154558 1.01064150043
3.60281365552 -7.57336521922 1.54531517721
2.83852810373 0.0661468430125 1.21462548803
5.11098696341 0.639121571299 -0.0347960482097
0.0406320707803 0.0662394541196 1.7244238939
0.618281680129 -2.24152314178 -0.6253492722
-0.773182775785 -2.93956881007 -0.738496791386
-1.3049754154 0.281284077335 1.20825603463
2.93585889034 -1.74162908136 2.99376317338
2.54573965602 -1.62600874668 3.49589375183
-4.17846927512 -1.79737214819 -4.51144503133
-4.08265772363 1.39591022679 0.207289158904
-3.32235680231 -1.295260758 -2.59694854626
-2.32395246674 -0.51414972842 0.270102321885
0.295539407441 -1.24217389116 -5.24182663245
-5.44315678623 0.135213066052 5.48692778499
-2.28030504115 0.572772125353 0.614317009947
-2.4621535422 0.305261828787 5.72593123453
4.20275905062 -2.71321388169 -3.81721121417
2.9555937325 -0.30780592375 1.29160537641
-2.03930691671 -0.850832521667 -3.62340046885
-0.20779106821 -0.0126508206371 2.00608973515
0.502390924581 0.859153329509 -2.69927488452
0.0100188086977 -2.96082374722 1.28206254415
-1.96624973454 0.963898098045 -2.78610320304
5.94165864267 0.188780988297 -1.69380930696
2.61629318702 -1.38828583362 1.82594285888
1.65337867472 -2.15403742956 -2.26408797943
0.3293048956 -3.50872730252 -4.95074055903
-6.13292067533 0.239652840814 1.61961876643
-2.39442425647 -0.339534352587 -0.203068038354
-6.10559988109 0.302199195952 1.85486736107
-6.09945798419 0.369247462852 1.96257779128
4.52758366593 -0.938952337327 4.1308317894
-1.28154062749 -0.587361522928 1.74683476018
-6.19245614119 -0.896620786815 1.60277508405
-4.05412997057 1.52140993218 -0.118383737999
-0.146171638297 -1.11319601795 1.79830760609
-4.43135552322 1.63804221798 2.58969369023
-2.35283790682 -0.0400489866746 0.153896518646
-1.46654820236 -0.401766594467 1.75741675156
0.262678020791 -2.87440606354 -2.87524681344
-5.39895832273 1.55598111531 2.19268172884
-3.29403739378 1.91842329777 -5.55406390749
0.154128010689 -0.483128539401 1.71886476392
-3.76632965123 -0.572217308308 -4.29213004259
-0.914088228585 -3.10458796902 -1.14291058755
0.618131379922 -2.7660302913 5.126878278
3.60374023016 -0.873923619463 -0.406342114336
-1.36404579302 -4.05186651766 1.95058580254
2.05864289441 1.32512269425 2.04874026734
-2.53101833125 1.13671620166 -2.89420506145
2.41686909559 -1.77461425745 -2.49837781539
2.16940457166 1.10882808155 -1.03793957447
-1.35943589584 -1.47279674043 1.23860098417
-1.40630222604 -2.21580477996 1.27039650052
0.104912741646 -0.465180083748 1.64066705399
3.05682915875 -0.895218118265 1.60767708352
0.0946771859269 1.62345228747 4.05652574997
-0.839503216767 -0.672864495308 0.651821432326
5.46681209592 1.06093589705 -1.44843306043
-0.813192000598 -0.83119305549 0.436040727588
5.37627892966 0.691905829947 0.51338797257
-1.72089748918 1.13101549135 -2.38432797678
5.8514108408 -2.20761704512 0.367522806362
-4.19496446552 -0.0985644309304 -2.66555122546
0.778991118272 -3.94399392402 -4.973355423
2.68165220274 -3.7366526885 5.00994553956
3.46822619199 -2.42642164103 1.58041448808
2.49274364334 -2.03919785598 -2.94264279815
2.30007166763 -0.900684079762 -1.47971214241
-6.11676823171 -0.166791831048 1.78292447397
2.71414629109 1.02525061296 3.78817731587
0.591699572193 -3.32324161389 -1.11959098515
2.4451950275 -1.08938534394 -2.29859283433
1.53604016045 -1.93960360855 -0.866380813479
-5.46490560056 0.29653096432 4.39691190139
-0.960518906165 -0.21538300294 -4.76914553553
-4.07338862538 -8.52082196877 8.77904915102
3.14652640751 -0.387276278978 1.41112166738
-3.08755431459 1.34455846128 4.37947098589
2.63386718631 -2.87161010083 1.06015658392
2.12199714201 -1.68616102912 1.49288541207
2.61997024801 -1.07382644634 -0.320280480916
4.19537041484 -1.71177593074 4.27983587819
-4.9624952081 -3.49521423063 5.74090072674
-5.82272878611 -3.94185322905 -8.23984336035
-2.37505265754 0.653261224575 -3.83885853171
-1.509295832 -0.146283376105 1.76587797289
-5.69766278128 1.47087583082 3.21484734797
-6.07087883697 1.4575355173 1.81855242981
0.0085873793511 -4.50430764002 -6.16610910761
-2.34138963129 -0.183642582612 0.253951194532
0.654926328912 -1.03510727439 1.61212944489
-0.0281208565562 -1.17061007529 1.77362411261
2.85380788496 -2.50520418187 3.82655631654
-0.964181493488 -1.02063787875 0.483192591984
2.26129448281 1.51308837287 -4.27276436485
9.9430427183 2.79124031336 -6.60159659798
2.88266634015 -0.591897182371 1.36584041163
-0.971823940478 0.790643328849 -2.39016435511
-0.0317286957532 -0.414973304158 1.72271095286
-0.725252295457 -1.09458857704 1.72620978954
5.09874142927 0.390262658419 -1.13366590208
5.4583220363 -0.441336648177 -0.882931260056
5.18088635706 -1.03314097428 -3.03957129387
-1.60151547779 0.0554981635537 4.39977030214
1.89871290827 -1.84758639616 -4.00761721494
2.35201200015 1.68059659139 -4.66436469208
-1.19000085992 -1.12061777912 1.73181754358
-0.595984691913 1.68650913262 5.59245139321
-2.14068478458 -0.951502669401 -3.51488748723
-5.18120985962 -0.718515987897 -3.24946468208
0.742156007672 -1.14487086468 -6.02514986688
-2.14388962094 1.46946728945 -4.5109147164
-6.27800551861 -0.199995179164 -0.276173797234
2.73444860991 1.94908676096 -4.37859063918
3.67668850065 -0.184298490593 -0.196596538663
-1.18394627778 -3.11362156284 1.55353582632
2.78718602989 -0.300022910128 -3.34309109747
-0.511931980116 -2.60331720368 -0.476222598297
5.598170467 0.208379215074 -2.76239126231
4.9140946868 -1.20577460634 2.87530170999
4.89529198475 -1.19483760611 -3.34208392152
-1.93183902565 -5.6243311115 6.22782667878
2.24634904644 -8.59553040165 7.4144679766
-6.78912692741 -3.81962686653 5.79059070363
2.58713056704 1.11359662215 1.70077755584
