#.PCD v.7 - Point Cloud Data file format
VERSION .7
FIELDS x y z
SIZE 4 4 4
TYPE F F F
COUNT 1 1 1
WIDTH 1054
HEIGHT 1
VIEWPOINT 0 0 0 1 0 0 0
POINTS 1054
DATA ascii
2.55201119529 0.418113587073 -0.607571508698
4.60732249884 -1.65575229406 0.330173817393
4.47197098397 -1.14772904129 0.405284096547
4.14761556243 -2.51702688866 -0.434918606889
1.9443903725 -0.0846530709631 -0.00416777813488
-0.501109891279 -2.19935571103 -0.627359759274
1.06295766494 -1.66027550521 -0.34513574493
0.810177743706 -2.17445090418 -0.248781694191
-0.560601419194 -0.933065514964 0.87080766525
0.0670133063237 -2.78750900649 -0.227354764597
-0.523028107666 -1.55570132242 0.807026406215
1.83670248284 -1.08508324916 0.486158452154
0.069127332094 0.602303148358 -0.981033537848
-0.55123683723 -0.868102226709 0.842524942928
1.54167146986 -0.972923255346 0.506644504425
-0.474229170169 -1.04572746738 0.678687256374
1.65892936307 -3.23203837887 1.42231436925
0.894445391177 -1.49277466589 0.23700807559
-2.99191348231 -2.67853323603 -0.597535199514
0.302285436365 -0.975878176082 -1.08886842026
3.71386886696 -0.303899827459 0.570274993559
3.68644058963 -0.300710359554 0.588782530349
3.77200924048 -0.287425607443 0.529602899586
3.69517681866 -0.318092671642 0.581950941073
2.54729186239 -0.720164268623 -1.48023785515
1.85800828188 -0.917727102744 -0.31877816731
3.68543386511 -0.904022469601 -0.625887684606
1.29419781387 -0.795365028641 -0.165452222208
3.45397683017 0.320356023499 0.50039727602
0.352307146643 -1.26555458738 -0.632745516029
1.70745441689 -0.895911673343 -0.219332714424
1.51114232176 -2.04801025633 1.47695644696
1.43233570546 -0.927707285946 1.44578400071
1.03966571123 -1.60182717143 -0.487569638496
0.94944407309 -1.25018672032 -0.204390178118
-0.390243323209 -0.732342433477 0.76960448602
-0.39444443324 -0.602619785133 0.724196267705
3.70486469121 -0.286364804119 0.574953092867
1.63975815337 -2.58577762219 0.789652243447
-0.00917926260678 -1.89766448285 -0.775671547395
1.48971535209 -0.878862848815 1.44322485472
1.09890215372 -1.82792381186 -0.711969681328
0.936776595409 -1.8334602872 -0.716293546737
4.59181838228 -3.0267208649 -1.31748337439
2.60630089059 0.180452005735 1.33214342207
2.83807735338 -0.36693619285 -1.18029342788
2.3948904749 -0.697925852151 -0.0662899978059
-0.311669716011 -0.578714787285 0.514992898165
0.851165853696 0.775087879625 -0.867415112711
3.73757061127 -0.287949992958 0.554174241239
1.55119168918 -1.23973913985 1.17859436013
2.72637869537 0.362963017782 -0.633996773484
1.96093556745 -0.361230188113 0.523273745031
3.14458252404 -0.702110104379 -0.382197646405
-2.69501722537 -0.00583230439845 0.317605607261
1.56678729563 -0.988401561314 0.697180068488
4.46550691965 -1.57485297933 -0.0592078003074
1.3834265896 -1.03976664838 1.43356824519
1.45172022203 -2.29378497133 1.28088568895
-0.419871377458 -1.06861678526 -0.188945192368
1.48902057128 -0.849897881853 1.31588745565
0.0326032186169 -0.0326638328825 -0.432492793014
-0.513940739142 -0.058205329725 0.807861925272
-2.6689484718 -0.562150200887 0.715734671334
-2.20765013405 -0.204873313698 0.504991754874
1.12097967954 -1.80587520363 -0.718695292019
-0.519479501915 -0.52920478418 -0.117608670556
0.604364717977 -0.851787397027 -0.563075204205
-0.590898432042 -0.446096901222 0.988970797803
3.87954198883 -1.23751367 -0.208136731553
3.0012660563 -0.0905182694417 0.384773171899
1.14776749087 -2.34454598431 1.30983438176
1.56726892327 -2.42720188868 0.469357685716
0.155702622518 0.0306524151361 -0.684862391788
2.87192491453 0.176043339262 -0.886914498781
4.03395627495 -0.731338206259 -0.805695004831
-3.40192140322 -3.47130740696 -0.703220160362
3.87393237186 -2.27273938958 -0.584982499119
0.973940607233 -1.82198568435 -0.499996137385
1.62868579855 -1.50328934049 0.907276127422
9.47827588705 -5.82837441183 0.324592390175
-0.804815098775 -2.92148103954 -0.309275589416
1.4480228091 0.0660272019569 0.518425286222
1.64424429395 -1.7787356243 0.502845044401
-2.68176183612 -3.94193305285 -0.387284531771
2.44197762493 -0.718711471492 -0.376087338393
3.11703650868 0.0737818697214 -0.333682897995
1.97651719063 -1.11645927122 1.07698920868
1.69815206357 0.463421462387 0.430731711186
1.59427740819 0.438947958655 0.681564000462
1.44950273263 -1.31323257011 0.868783069619
3.79439784457 -0.992870911819 -0.314735043
3.77740724979 -0.397762180083 0.535327915143
0.842639541623 -1.61017854995 -0.718889816578
-1.79832844604 -1.78243334996 1.24464051856
3.62199598821 -2.3422471906 -1.47923431438
0.693661362713 -0.296345373683 -0.708879054515
-3.15880633801 -4.18407065125 -0.918229719952
3.64936577783 -0.213733549231 0.984975278797
0.822511699239 -3.31341927285 0.622154310864
-1.20062270914 -3.33654665089 0.749924431016
3.85395453176 -0.443251208387 0.747208649545
3.80573902069 -0.840676673304 -0.520319276933
0.519191085374 -2.32005707655 -0.396939196323
-0.205936677948 -2.03218327331 -1.14118654331
1.00917804199 -1.8093291977 -0.473824555002
4.50576162053 -3.01619605248 -0.396255669123
3.83853604128 -0.959532657971 -0.937521771781
-0.361732264498 -2.01313077691 -1.14664969729
1.61377508575 -2.48347705277 0.133195479317
1.12742655911 0.569168046938 -1.02103904091
0.493238240214 -0.401755777097 -1.12565722149
0.459860232822 -0.354398868337 -1.12535053799
0.696356002534 -0.368192210168 -1.11801039272
0.60663149248 -1.28557414208 -1.13222517628
3.37355680443 -2.13075595556 1.44368253962
1.49600053696 -2.23551493475 1.13206774921
1.40081019707 -2.16070252383 1.38907853477
-0.523226926726 -0.830347101771 0.015822900224
-0.311356107294 -0.558931136607 0.821602321603
-0.328321864029 -0.89712853632 0.797126242474
-0.330918954416 -0.73812300141 0.81296925852
1.67735667578 -1.44072553192 0.573846970214
-2.37193878566 0.391125688692 0.0237363894236
1.54805627951 -1.88289652767 0.7970642696
2.09077419414 0.590368245565 -0.360114990411
0.796255017012 -0.823721044831 -0.32302429438
-0.522489345203 -0.663471323499 0.11414155432
1.47026798437 -2.15799684434 0.0278606521212
1.52555738578 -1.64235380525 1.21245040193
1.54374114673 -1.7441029046 -0.227542074761
0.369452677083 -0.395731081181 -1.2404625316
2.60275693849 0.503353920653 -0.276398556283
3.70077709695 -0.600658214896 -1.46695334166
0.412690716625 -0.332223704288 -1.21785782816
-0.492131804998 -0.494380290386 0.651803696052
1.736514833 -2.62891171379 1.25188442351
1.21320551596 -1.80045540934 0.455103581318
-0.398343096963 -0.422992965463 0.70327021207
-0.392898171138 -0.742221420737 0.872870353764
1.89410025575 0.126038448099 0.246497246413
2.57194242244 -0.0850423671259 -0.934910631391
1.25863773 -2.91089217375 -0.0884397651005
1.23678421035 -2.3856254605 1.3475242331
-2.78649798373 0.480519131527 -0.62074707069
1.58527452004 -1.68365383411 -0.363854339751
2.59727726047 0.357209872271 1.36064401128
3.87692602724 -0.514102622062 -0.501864081707
2.45561007282 -0.136758287235 -1.01639088117
-0.539841334625 -0.92577217718 0.643707311557
-0.0581305988707 -1.7248814725 -0.496874049951
1.20183458177 -0.862228814448 0.793489208902
-3.09210861422 -2.91246062247 -0.191430259861
1.06866070172 -1.84475338585 -0.707001933184
0.674499596447 -1.00687542249 -0.689904469196
-0.424817315297 -2.45762616395 0.154383157191
-0.530652468655 -0.950763858619 0.407714313182
2.60758877805 0.198420465244 -0.587283302171
3.176584101 -1.5945774209 0.044644411207
2.00968763339 0.639411044973 0.0855959780149
-2.10949599337 0.111033927805 0.249221237079
-0.333011740229 -1.54646881625 -0.697117806175
3.52515042942 -2.15051184016 -0.193028226527
0.0102087120367 -2.82937064372 -0.685012499962
2.72644093848 -0.595066885125 0.00864265299927
0.20586674818 -0.617094134304 -0.520795728209
-2.70103856552 -0.97414039702 0.358779123762
3.77654623419 -0.755483630708 -0.863787121285
1.39652670174 0.376712725863 -0.422184940433
1.45970839274 -1.36406969314 0.37363050512
0.143829638469 -0.79236334947 -0.574095575766
3.49798513797 0.445436452383 1.28871955028
3.69733701704 -0.39307298118 0.584144471619
1.10599195752 -2.28118382793 0.425000135717
-2.22147647611 -3.41702504688 -1.05579753928
1.30148568725 -0.810659332742 -0.266359269287
3.60532674421 -0.980170370581 -1.1859342716
1.82361040827 -0.517546917602 0.45112654784
-2.56354896009 -2.97718471726 -1.05099424784
0.427491524975 0.0822677962506 -0.819441303343
3.60649712546 -0.0792470480415 0.983450785903
-2.25833009338 0.325158619961 0.130968444971
1.11862440103 -2.26200274092 -0.350273918879
0.908851042871 -2.33113239756 -0.395732788156
1.55849644409 -2.88215609982 0.740353174205
-0.526077727376 -0.450486666906 -0.0376147469729
-0.291624581406 -0.711004906825 -0.880722193011
-0.518703907881 -0.61643548133 0.0153687213903
4.12211137852 0.5925177971 1.18873757266
3.66545306753 0.614397135933 -0.0718351706647
0.859050109118 0.639150557384 -1.29764334412
-0.445112909357 -0.832127822091 -0.56323461909
4.81134145339 -1.05445410194 -0.721096633253
-0.575111554017 -2.77064845921 0.888077694771
0.371256750601 -1.28864704963 -0.631238714518
-0.571584283205 -0.550837576908 -0.17068200344
-0.366474648007 -0.596775273507 0.321552445231
-0.455237947856 -2.35132372624 0.568009681798
1.58598594182 -0.857501330263 0.874336844743
0.238545896965 -0.328452636443 -0.198801334401
1.47130253935 -2.80560515236 -0.212928320671
-0.511295101967 -0.700672362284 -0.19285661343
-0.160574055036 -2.67793446128 1.07883818394
-0.400030448356 -0.598939795034 0.327362960952
2.71726005965 0.42731987166 -0.888162314789
-2.34295721329 -0.439787218006 -0.755532598563
1.02231472214 -1.06508189448 -0.459464646481
1.14721712318 -0.894382687886 -0.422663789579
1.21668401136 -0.864573294544 -0.570912119474
2.08547405338 -2.08639288521 0.697274520805
2.82825788333 0.395112059079 0.106679368359
2.01080241757 0.467119616629 0.559007725914
-0.269434926333 -2.3820741914 -0.911910105114
3.93463111558 -1.45298615976 -0.695783625829
-2.68383312362 -0.959008580041 -0.0523428469029
-0.47012227534 -2.22142159975 0.0890692456812
-0.504705917314 -3.05851869438 1.33408259902
1.57880866838 -1.29498977858 -0.0460311019203
0.66952882628 -0.416031900532 -0.886837757411
0.763289364257 -0.3955942244 -0.887840767521
0.804548948456 -0.475748653243 -0.888773972111
-0.487056815706 -0.756578627069 0.698831165969
1.65630697557 0.539726453092 0.906655793318
1.58724556857 -0.831817923592 -0.32822886128
2.09400084286 0.420980677917 0.557633074523
2.05040768338 0.426878763292 0.320558772452
-0.313688989035 0.0722802718204 -0.863320148173
0.271386382574 -0.897939420687 -0.320983657328
3.36925043305 0.428588144981 -0.450545774834
0.773177020884 -3.67482647572 -0.623195464193
-0.511475539669 -5.12091608328 -0.642623710727
2.96518756111 -0.18645985851 0.507792874306
0.11578940138 -1.93373288629 -0.733034191897
-0.513959616518 -1.2089426657 0.256140070905
1.03266095067 -0.905659892285 -0.957913017397
2.89362169606 -0.0146605613286 1.46442158404
3.14565406652 -1.21376535277 1.48367440843
0.243562358077 0.0543565664655 -0.876017047575
0.700210968391 -0.455273150675 -0.890770703318
0.429634101871 0.0715778846566 -0.823719559106
1.53769082549 0.446050362948 -0.827034164805
2.5734539228 0.372665780369 1.43293207456
2.57679836908 0.18822225135 1.45581505152
-0.438580444206 -2.77700576128 -0.682938758833
0.842743154445 -1.58841641712 -0.717065540153
4.17022384412 -1.5569360552 -0.482704333563
-0.410112739944 -3.06031508452 -0.679993931051
1.43918698112 -0.927908457362 1.28175558596
1.66699579407 -0.0161411598897 0.7854351679
3.93243926774 -0.66466242188 1.39279881843
3.85818669758 -0.25767042444 1.44790336549
3.77166252985 -0.275067129458 0.527126552285
-2.80217571286 0.0606779871838 0.165818928675
0.41910771981 -0.399886690123 -0.750234741897
-0.495501798555 -0.437196903239 0.682123070964
-2.98583182424 -0.439284981667 -0.513786202085
-0.140229453558 -2.00157894614 -0.729810937413
3.44553320761 -1.95802677363 1.27163024813
3.23842002581 -0.05126789597 1.45632112173
2.58851645067 -0.439631435873 -1.49295215285
0.461850151586 -0.579764286405 -0.892905138256
3.81219233427 -0.965190384229 -0.324059749263
1.62170875396 0.417152002427 0.667117490341
1.66884817498 0.460089344816 0.607275679976
3.86283277402 -2.39505254287 -1.18863760139
3.73482165852 -0.388548233533 0.546723619266
3.65762235869 -0.324731495914 0.358267308889
3.86421229971 -1.23171008848 -1.14463997376
1.20890556345 -4.61038563464 -0.0253757204915
3.33514507402 -0.510585328691 1.42287156573
1.54014353314 -0.974140399276 1.19256504102
4.27628408407 -2.16023381475 0.11803010911
2.82248680966 -0.629727491362 -1.27256150517
3.66213701606 -1.34358850563 -0.934752538323
2.78881703439 0.505880034439 -0.908802975583
1.17901331693 -2.5479904233 -1.07058459574
1.500653449 -2.45176368561 0.861708989879
2.2259979011 0.303839114288 -0.907690755408
0.408169325275 -0.40834669795 -1.12707411712
0.463048669599 -0.327173904279 -0.707598920972
1.67679384119 -1.44165485611 -0.536837652527
3.36931192099 -1.38813562045 0.305293833685
2.75576257693 0.474146573179 1.45018482668
-0.100994988887 -0.0251309896064 -0.441238036165
-0.256666523336 0.645795061054 0.0899214156523
4.89852066318 -3.02464216196 -0.417652195236
3.71259948716 -0.149185763549 0.905985515915
-0.436030525136 -1.08842702703 0.362104520003
2.39636120873 -0.0675611373661 0.0448020068018
4.0289505325 -1.11612999702 -0.712693318265
-0.27149248078 -1.68313720888 0.836510552545
1.64007391231 -2.36308358224 0.0326837167949
3.65281021208 -0.305541082001 0.608021981919
4.35863385817 -0.573070840247 0.775756984853
-0.133304875984 -0.0364767542424 -0.453458818451
-3.46356151733 -3.4450757054 -1.00637045301
0.679743223866 -1.65733477895 -1.13398770175
-3.06195561927 -2.77843905316 -0.548151855376
-4.39590139721 0.93838004368 -0.281722459504
1.58642517366 -2.4722294587 0.191157950778
0.757822645201 -3.28862499999 0.617051420542
-1.81404091469 0.205948137697 -0.710477148294
3.42467676911 -0.264071680578 -1.36688903946
-0.63289487568 0.160963280194 1.0089479426
-0.556593728771 -1.04973660789 0.887880347479
-0.495323690949 -0.775397990804 0.806980079934
-0.408168691172 -1.5838831344 0.574199872764
-0.516616604623 -0.109655196157 0.821616280148
-0.514281950206 -0.0170076022149 0.795305995482
-0.479624635331 -0.959000968589 0.689999595973
-0.481671697508 -0.884897607936 0.703042691542
3.76570191151 -0.386437678351 0.535234661869
1.06595043618 -1.4878089409 -0.508695411034
-0.33835010905 -1.41323016607 -0.0770344294568
0.953230426293 0.823451783185 -0.354047155315
-0.220021014413 0.681229074236 -0.276553003585
4.09287368547 -2.21344119235 -0.908883828043
-0.50111676939 -0.271976717373 0.674528586788
3.56860616989 -0.309510209633 -1.43092029523
1.59540603974 -0.0151645322953 0.61333562755
1.74691287112 -3.1780068458 1.19641488642
-0.538899690129 -0.568010943343 0.111441796388
1.3065874693 -4.30567825897 0.0373798055647
1.32222033789 -1.32148631947 1.43814766745
-0.301813263559 -0.642292057383 0.573206420997
-0.410035377381 -0.329376062888 0.891665714816
4.46677315161 -2.53889596682 -0.996361591387
-0.379282409286 -0.871410711399 0.685217385504
3.89220141937 -2.18170181715 -0.646606914202
1.62035690125 -2.35372349877 -0.484926877361
1.50488901518 -1.09032763891 1.12914533982
3.51369717914 -0.657093168176 -1.3984475445
0.758804085795 -3.56902538073 -0.652818491224
2.7684366093 -0.742715687472 -0.48301457563
-0.276748840017 -0.999291318649 0.901086323433
3.43151606348 -1.29372917784 0.825673595767
-0.00782000547438 -4.27915172506 -0.552823054555
1.84617454268 0.401169737845 0.991114244725
-3.63096536686 -4.405867946 0.35174860985
2.00794689082 0.575653968385 0.129525889627
1.20834307096 0.701119400433 0.988266261701
-0.53148448223 -1.24922829891 0.666822585224
1.51029182671 -1.1769665701 1.27156913306
3.68097755151 -0.710486216277 -1.38354389857
2.88305971015 0.117127058867 1.4691250747
1.43915521242 -1.0917828266 1.1640313607
-0.593671994098 -0.342414476718 0.992183978126
0.0153450799365 -2.86543932604 -0.673936977822
1.5780084892 -0.959985725456 0.662377253494
1.5925191679 -0.974046024648 0.676406797726
3.25190964995 -0.714671547336 1.47892461831
-2.55445032951 0.347989868487 -0.225096812089
1.57775903029 -1.64669839219 1.05168622269
3.52708669239 -0.716718987461 1.34369913043
2.60960331868 -0.864436032251 -1.49479458389
0.693246940621 -0.346880717501 -0.70449034622
1.52458412876 -2.64458569371 -0.180078540915
2.69298520803 0.7158132054 -0.466469092456
0.165858808788 0.685107879016 -0.322030182878
1.1102661119 -1.8971616538 0.444926274676
1.12216632027 -1.7969512698 -0.717404759115
-2.64261825783 -4.24434807085 -0.627616041216
1.61860020231 -1.53136937042 0.195363703965
2.45360268586 0.734452533634 1.44469888635
0.968296022168 -0.939463967522 -0.182678174097
1.10987264521 -1.30181563507 -0.413696189846
-0.255265129899 -3.3964157511 -0.196287180017
-2.18739484711 -0.464874294956 0.501938203874
-0.520991249368 -0.611141538678 -0.0403792099625
-0.505551454367 -0.9371561881 0.0996024238161
-0.549932316792 -0.795216070285 0.588336034934
-0.3959213741 -2.5534390048 0.468572695956
-0.624178234638 -0.551759652542 0.0322195863658
1.18735033301 -1.85366865932 -0.632471365624
3.98352505364 -0.844806726927 1.48969059185
-0.144631593923 -1.99590570433 -0.733479356103
-0.506464488927 -0.844697791152 0.213695672185
3.29037332958 -0.973759512783 1.469736826
2.6209753816 -0.616411598824 0.0684198913948
2.7637400565 0.441728951715 -0.0792906003681
-2.71843100673 -0.493646519723 -0.125707198392
-2.49542010756 -2.45593899132 -0.0798712986725
-0.412405414433 -1.43694450425 0.0103308341409
1.01662298339 -0.454478195354 -0.594365869894
2.78356861903 -1.40334205198 1.49349937656
-0.529136750005 -3.59234610418 0.136829714641
0.223582706907 -6.22266402346 -0.874459105105
-0.499354743346 -0.584840771388 -1.28245832925
0.711188480973 -1.57513383739 -1.23375944742
-0.437435424972 -0.541326212261 -0.730661409985
0.669227022671 0.0764224789211 -0.889195887794
3.79336420332 -2.0728296483 -1.37752718078
3.95643125695 -0.763113639384 -1.02860048571
0.309329908987 -2.27630424649 -0.407386797434
-2.36858065379 -0.312542691236 -0.657203189684
-0.312717694286 -0.520043495963 0.774473359087
-0.433783998668 -0.97343156949 0.59357812034
-0.581009978739 0.810850752324 1.08511104536
1.53596148779 -0.922722350328 0.347006028567
1.98805919283 0.467364013825 0.561158392411
2.07508518025 -0.766217167116 1.26229546831
1.96972128977 0.477399740816 0.407465940502
2.00054691408 0.459732229624 0.567155979766
-2.17091197737 -0.321724809514 -1.32673548558
-0.426900161545 -0.665052234994 0.452449517001
0.178138615279 -2.77182979059 -0.0792976967913
0.373756954334 0.0144364791078 -0.895245531045
-0.575198491528 -0.719838065889 0.9787562268
-0.58765023335 -0.605200546705 0.700771769366
-0.590618471723 -0.363330793618 0.457819083169
3.71897007782 -0.885347489554 -0.286829935984
-2.80409853033 0.0283010575408 0.0189032245801
1.82374372343 -0.723010053644 0.739821571233
1.64008174529 -2.21257356188 0.235337545129
0.313547686871 -0.879424034283 -0.285920130751
-2.39233834635 0.563056117886 -1.06616521745
-0.281901000815 -1.63321360015 0.820826109369
0.601704360651 -2.18278201709 -0.444836445154
-2.25219184622 -0.162295808886 0.357920633095
-0.311034836104 -3.33039424822 0.797973708689
-2.38842489477 -0.404614661218 -0.575760273266
2.13686307919 0.444338921061 -0.493326403402
3.32325753991 -0.397064558487 0.786349580467
-3.15217355117 0.550452846341 -0.547639534667
-0.387555543807 -0.694898471013 0.739856460231
-0.385256100753 -0.721864503017 0.711238683998
0.0844527778564 -1.50891031273 -0.722755440689
1.3428317567 -2.2295242292 -0.594053096389
-0.608391691588 -0.0902631212102 0.999393697554
-0.567669740743 -1.08810035545 1.02771087569
0.633015868232 -0.319455208045 -1.11008432112
0.621717981453 -1.66075534838 -1.12652963334
0.494964252476 -0.425129963488 -1.12116196655
-0.520003581382 -0.81824351043 0.0593326061941
-0.751633553471 -0.345989368597 0.123210777186
3.18789029004 -0.407554999732 1.44643742893
3.51579933381 -0.657655622377 -1.41360159365
3.51745139001 -0.658561708636 -1.41906609639
2.75624435866 -0.131655042337 0.207810592252
-0.314969988991 -1.00763034777 0.813414910006
-0.805002105737 -2.84003080988 -0.309604123841
-0.696272493618 0.182451756221 -0.592330391127
2.7033470994 -0.426907603092 -0.926119431576
1.89862744136 -1.12847320509 0.520686283364
0.677953732422 -0.871700789484 -0.60610439085
-0.0712220436339 -0.33377540442 -0.0506971908664
-0.601786889612 0.592483212936 0.115917143345
-0.255612435592 -0.612381850347 0.0416577599201
0.543065391447 -0.793181132282 -0.514877005339
0.850837750043 -0.912647458947 -0.513591732396
1.43295757566 -0.862076755552 1.29855784005
3.67806764634 -0.600581868647 -0.259584939423
2.76257704172 -1.60528829314 -1.41100380919
1.46113461363 -1.11936740902 1.26159790451
3.45192580107 -1.23944200164 -0.934787661456
3.79027138536 -2.16227514341 -0.885404007783
3.15224076166 -1.21757156076 1.46747841133
-2.33151281987 0.419198085548 -1.25584746012
3.75377922905 -0.880689832077 -1.11862986166
2.59461272236 0.403457729983 -0.630599990076
3.64220149569 -0.187339857165 0.79926450782
1.39592688331 -1.02199296002 -0.908865491488
-0.342792527089 -0.691204885923 0.813648661989
3.99689108143 -1.17899341289 -1.34119748647
-0.455333228335 -1.03769281185 -0.146715673337
1.97155732323 0.0985974502681 0.427140821809
3.99897007184 -0.936659394217 -1.29192048123
3.83946057329 -0.996674680328 -0.342916381899
0.0414338389964 -1.42887585586 -0.198244953806
1.60967922263 -2.99667529951 0.0196975399599
1.67312384572 0.0732776522321 0.630035059337
-2.20154125522 -0.238252208343 -1.03595131177
-0.512309762448 -0.0228533247604 0.807912970461
-0.696886195774 0.903392212397 0.892238064195
1.42727304615 -3.00282594482 -0.59598154959
-0.580163804106 -0.523488775732 0.83804837922
-0.286866431089 -1.20832696936 0.796153156773
-0.600884276883 -0.383270556244 0.853208179216
0.255902344683 -0.876506591351 -0.382152332836
2.35143325064 0.542248606399 -1.0789433336
-2.99652164816 -0.277789367616 -0.480741009207
0.707701622888 -0.441769804498 -0.331732920747
3.853673835 -2.48208387253 -0.559292361542
0.383550640673 -0.342156248875 -0.714059259219
3.85458421741 -0.685502125267 -0.630553158504
2.77982055753 -1.61132672661 -0.765584929174
3.86059668667 -0.213442524535 1.04057128867
4.17755333291 -1.49031390627 -0.663421107474
2.93785763092 -1.09721842011 -0.106521585391
3.50869473275 -1.71108206652 -0.0815754377752
-0.452950033623 -0.785463054326 0.855877671591
-0.701492848668 -0.36977772645 0.164449312842
-0.320577797301 -1.18166914677 0.805571319997
-0.972767327807 -2.47934675842 0.339080547936
3.81114876007 -0.912509854912 -0.220741298085
-0.526399302846 -1.21424611173 0.689318705428
1.37132005092 -2.69109752273 -0.516232664233
-0.528160437143 -0.422327773722 -0.118763907492
-0.418392646519 -3.43212857713 0.606291405435
-0.566947361474 -0.86454430283 0.882214970533
0.92953738166 0.675267686424 -0.230012140013
-0.319562373785 -0.703985254011 0.795003663788
1.55030731435 -0.936266890103 0.241980529097
0.603629105294 -2.27288741282 -0.38287361777
1.7703827249 -2.81272455909 -0.309900582107
2.05957697273 -0.591827907047 0.549604651801
0.319731414819 0.0345070052943 -0.49451935762
-0.360733732024 -2.03192538312 -1.14620387746
-2.36700815017 0.415673028417 -1.29076123457
3.12474577801 -0.184442290203 -1.24497224066
-0.673640750896 0.232548931088 -0.610022599057
1.26739821145 -0.874704910672 0.488426356531
1.14299223731 -1.06239641952 1.09927285316
-0.368722041232 0.567200703227 1.08007992158
-0.483419854984 -1.90538226903 1.28266238012
1.12359191254 -1.74614010301 -0.474356631127
3.46454415512 0.645178396668 0.0198415664823
3.41778762988 -1.89690336814 1.24636874175
2.77591811388 0.477690112407 -0.483030829871
4.04665342821 -1.02736802956 -0.812137569011
-0.521135870704 -1.11868404083 0.283207537814
-0.506714248455 -2.03437290063 -0.557723686624
1.28699545272 -2.41205693792 0.715334856374
1.13324398145 0.617290185914 0.590575553989
-0.239388883464 0.0816540736365 -0.595107081389
1.58380715999 -0.94853587505 0.151395458565
-0.56715053856 0.612607273522 -0.355250022614
-0.508984668051 -0.829463266577 -0.0171234137213
2.69254921751 0.726148359328 -0.482806696909
-2.70741907166 -0.216163939323 0.488542426537
1.52238825371 -1.07836439264 1.09668194561
2.26978372969 -0.204948950876 0.0615058001664
1.61446835646 -0.638059618634 0.705463827473
-0.511922258133 -0.600023813179 -0.109867149375
0.323198422805 -1.05316083576 -0.412334347738
4.24525489257 0.966927723652 -1.39693094621
2.76975222714 0.712604566885 -0.442290337983
1.63066460928 -0.962931245102 0.428521297131
3.64656809405 -0.72205755892 -1.46651846144
1.58134047653 -0.970462159454 0.798535807679
1.57713243996 -1.02188616019 0.660102161081
4.27453051359 -2.36056809762 0.112013591892
-0.0720780485202 -1.97429352616 -0.735471396033
0.690502116706 -0.460829508105 -0.898618600546
-3.1055189881 0.0876547462697 0.358798099521
4.44006786359 -1.13340149409 -0.612360825847
3.0044179991 -0.619566003806 1.46608782771
-0.464960216361 -1.42216912321 -0.212950701244
-0.559632718349 -0.676916146812 0.680291748078
-2.18458977405 -0.464718205411 0.497741007843
-3.10346863341 -1.81912862613 -1.0678717142
-0.556306887457 -0.661123106691 0.682308319053
3.24099929149 0.351373724444 -0.798760693234
1.26574879333 0.0352972391522 -0.629477933263
-2.18433081416 -1.69956508115 1.43765452442
0.0253170251531 -0.571544323702 -0.718343935686
1.50110553939 -1.95883030176 -0.362668306676
0.510904601501 -0.357002160944 -0.657454354188
3.56868240644 -0.28393219855 0.129731331036
0.278089092573 -0.98709429894 -0.614272818403
0.25938567882 -0.89609502775 -0.648132644565
1.26069464721 -0.437568310673 -0.550679995659
-0.125850359335 -0.281448919122 -0.312798810803
0.0644351792199 -1.3188392364 -0.235024295625
0.90904243675 -2.13441620061 -0.372713537989
0.574583447175 -0.880680317387 -0.345937192317
-0.216040234185 -2.07616898635 0.720512753758
4.45387738115 -2.42307994341 -0.843137770637
-0.434492168306 -1.04966051403 0.303628787478
-0.49545959686 -0.509647955173 0.709860711642
0.933670118351 -0.871199194284 -0.490475935329
-0.49513306678 -1.37803575767 -0.580084839888
-0.507006921628 -1.00123034788 -0.0809293457963
-0.475368498547 -0.866231675498 -0.150047669076
-0.489473277278 -0.774681917946 0.766449363696
3.36026134547 -1.53223899699 0.820236404527
4.94592823297 -2.706175692 1.22022687661
-0.551666555501 -1.2053367111 0.874244570539
-0.552961992159 -1.51937331355 0.87682532608
0.363959667482 -1.38811875333 0.960796793959
1.56911256638 -1.40643506434 1.09302511226
1.51444442882 -1.62501775303 1.20079631239
1.59873139734 -1.64669669703 1.05180565737
1.58969777267 -0.98875597683 0.666282240296
1.58434113464 -1.78347484448 1.10814110054
-0.448541514887 -1.00761219898 0.259646598168
3.43143290623 -1.20634325476 -0.930520459309
3.37254141582 -1.17305133723 -0.853312955458
-0.486041793992 -0.429949706527 -0.517359113793
-0.482135375298 -0.53502456912 -0.513522631485
1.49029244008 -2.1384462671 0.203645949318
0.247883414409 -2.2245635675 -0.264607996373
-0.257578924974 -1.27727067752 -0.850691989642
1.72040101453 0.488211660216 0.609470080243
0.905069312738 -0.329267909402 -0.895168915982
-2.64525896172 0.462185177188 -0.583134050419
3.64271413614 -0.191482127567 0.609221197727
-0.383388385666 -0.757980995586 0.690563781486
-0.377386903642 -0.885758986179 0.687404484929
-0.398762804302 -0.583536854552 0.850976223423
-0.214365449487 -2.65465739068 -0.488003030855
-0.293066681189 -3.04244194496 0.651439382559
3.76194962134 -0.303713259433 0.539574946924
1.5923840302 -1.11427204436 1.13737960625
4.16131308071 -2.98912185329 1.11969846825
4.22265627998 -1.2445297604 -1.35805452692
3.90694717572 -0.582376159761 -1.3781921405
-0.574107117367 0.627113653341 -0.352072366434
-0.528286588896 -1.53436463691 0.87192841296
1.80273920307 -3.85877859695 -0.341778769815
-0.594897516078 -0.500561986971 0.975095144576
-2.18063332593 -0.0741798282272 0.181220353088
-0.339049336874 1.01954899009 0.378791272421
1.15523986389 -1.28681082143 -0.40107200105
1.0945811446 -1.26342716245 -0.385687359014
-0.220134032158 -0.387993594468 0.0841826750008
3.91129268756 -0.759412710353 -0.584600079803
0.145169522648 -0.0518377073163 -0.411427357927
-0.0624544213544 -0.758078382326 -0.563381889661
-0.339024825798 -0.612268967545 0.793291321114
0.277863389995 -0.890465887031 -0.470219484326
-0.0226497417985 -1.98411007295 -1.14795684107
-2.19197297067 0.29321321215 -1.28291046706
0.421694082511 -0.380613230435 -0.723642816983
1.59944916398 -0.00932608466864 0.891051035496
1.61561458119 -1.54470997949 0.345972189196
3.44872276158 -0.749429366067 1.39701980144
0.471446437523 -1.16469083911 -0.375993730245
2.89267568892 -0.0476292537598 1.48418971539
-0.498134477512 -0.594706621198 0.776397780984
3.71160770844 -0.297539818272 0.5639970893
3.10092392591 0.602558664295 -0.742545353853
3.05600444678 -0.0305691714828 -0.232838415109
2.55268635158 -0.240450365763 0.235787198486
-2.1961085076 -0.435689357815 0.489317487346
-2.70632155149 -0.460638394032 0.462872372206
3.75247377345 0.838182681495 -0.831327978513
-0.554516634847 -1.03674922946 0.822402047808
1.54466371606 -2.56409484172 -0.181516826619
1.99309722565 0.615845436525 -1.36798043968
0.4502782627 0.0556796705007 -0.818233653678
3.69506096906 -1.21337040899 -0.803750482016
2.98937067377 -0.810780533241 -1.32263627668
2.90960617037 -0.849284840248 -1.36686649912
2.99916996145 -0.983550027396 -1.32672699565
2.34006928833 -0.109510704577 -0.345097154079
-0.0379255467839 0.65092820802 1.40689970381
4.95677248887 -3.07427711415 -0.39507547512
4.14736836509 -1.38354911553 -0.818305130559
2.7275446437 -0.927429179504 -0.137169488269
3.69058257841 -0.910183110836 -1.10224553466
4.78092415557 -2.90055720756 -0.70886532645
-0.553364321547 -0.726997488158 1.45751125729
-3.56155235956 -3.98748001367 -0.879828429842
0.568182181588 -0.909168259701 -0.360481401485
0.43389522646 -0.534562946061 -0.198481685364
3.45660601107 -0.692188717712 -0.694093091537
-3.16566763423 -4.11752625455 -0.400570054859
1.22770651105 -1.07476331265 -0.0240984725829
1.31411280268 0.200895517863 -0.482251227559
1.29339240021 -0.873830802712 -0.168445325708
-1.74292810178 0.162553360478 -0.773861911373
-0.318730167793 -0.632795172583 0.823706483613
-0.321205318349 -0.651026593837 0.801231427967
2.86149811508 -0.922132516861 -1.29438490914
1.55000678931 -1.63395034019 0.127503856723
2.9608682989 -0.942068533581 -1.16025430763
-0.483713562594 -0.749487844691 0.668193442779
-0.471696776679 -1.23586213107 0.691285060396
-0.475008159369 -1.21996050025 0.686237452937
-0.491898106192 -0.37126943294 0.642532415845
-0.452196278036 -3.20366014877 0.813966967096
1.42751429661 -0.998166943246 0.733234356518
4.3133806643 -2.56651372395 -0.454003976464
3.66053465725 -0.392131434546 0.612872575174
4.1976401194 -1.48436414211 -0.207417326848
3.12700351068 -0.192115638957 -1.2698947774
0.0422790896506 -1.70607431864 -0.198285421331
-0.316961086494 -0.65103787744 0.798968994052
1.58342384466 -0.945922544891 -0.0664554444699
-0.161270137503 0.547274376559 0.00261756221466
1.3273853023 -0.739929757108 -0.267074880775
0.660583635497 -1.66166630621 -0.674721037211
-0.412675195264 -1.39996769933 0.554985153658
1.31251428144 -0.785110261563 -0.232379198074
2.64031688002 0.330566510594 0.205102270516
1.76417254531 -1.03078524167 0.423508261298
3.60420794764 -0.117813662714 1.12321309959
1.59391589571 -1.01032212485 0.194243194461
1.595257398 -2.87547277571 -0.293199269316
-0.432591683098 -0.974109891958 0.551089770595
2.47104001296 -0.323755195581 -0.146996602774
1.41176030333 -3.10269273743 -0.306734335953
2.76242624441 -0.738602516931 -0.287570967346
2.88593128788 -0.496982529109 -0.203832657554
2.30352023106 0.606425009408 -0.607731663778
-0.339185143284 -0.509933301972 0.840567194242
-0.306847713292 -0.640797118246 0.570772816858
3.56355334497 -0.249300853139 0.355019779077
3.56689794111 -0.272669645254 0.114730660128
-0.504005828917 -0.905659875772 0.101413428393
1.32996372792 -0.990823121334 -0.26237513413
-0.376903625612 -0.633402055288 0.413804421155
-2.51846430734 -4.0663360508 0.193639847673
1.2452963876 -1.06770402714 -0.58948078492
2.15862223262 -1.51407634793 1.17050433816
0.285220889679 -1.02792919205 -0.649366361325
-0.418884419919 -1.37089347494 0.565730660463
1.52332405698 -1.40831280255 1.17241687893
3.03044404621 -1.14901081451 -0.0770101291904
1.90145914326 0.0422489239012 0.146922737968
1.1901460546 -0.94723076698 0.935387416559
3.28263859569 -0.189145183624 -1.31873637221
1.91859063349 0.159645142579 0.115288269091
0.637530801772 -1.23116802847 -0.720442182489
1.05652653789 -1.54646509147 0.0387451290282
1.61105853044 -0.637997722909 0.706672524739
-0.0895887592801 -2.46144430812 0.0654960039257
0.964985360681 -3.13271033227 1.24978770449
3.78185944208 -0.406263160565 0.534996632487
1.58644588751 0.375628594434 -1.00736593062
2.45984884827 0.349674046063 -0.624208934228
0.369637346081 -0.00547313094312 -0.876085168437
3.53756597551 -0.951119448923 1.28598103481
0.492096146114 -1.23042813373 -0.378916768266
2.65094909075 -0.448192215713 -0.395196169271
-0.380150679652 -0.477326965832 0.0740007883001
0.352898608862 0.5084789065 -0.0646799109765
-0.583642393982 -0.717420455233 0.954232800075
-0.529037500204 -0.893119260763 0.395501304924
-0.508937978853 -0.93659844349 0.0993863680212
-0.490531984374 -1.60851056774 0.442004377417
-0.71570874598 -0.395628759772 0.295420397383
2.47533570265 -0.5396505107 -1.49722548305
0.532736727451 -0.878792116259 -0.595757016709
0.0442426838955 -3.42855244499 -0.229314496456
0.473002052602 -0.30093252672 -0.685569028698
-2.24628594913 -0.0748830410551 0.946573592076
0.602606446303 -0.256115239066 -0.721495824837
0.0247471952699 -1.43287971602 -1.41389970197
2.73896594999 0.499737205695 -0.621210557784
0.947235848929 -3.21379570541 0.676457798631
1.05669517327 -0.42906390486 -0.553961826103
-0.435920029049 -0.564198733413 -0.72401506476
1.86606484776 0.359400626591 0.801404182249
-0.316701561252 -0.557322199453 0.789933240322
0.0190554543974 -3.37258175192 -0.921177491611
1.61395642077 -3.15394688448 -0.289126607385
4.46433108173 -2.67832773587 -0.776383804341
4.47851777905 -2.34170167429 -0.268690848387
3.53120288679 0.48618883815 0.0888958331579
4.67864212022 -1.1697022297 0.918946534218
4.48302926622 -1.62513251655 -0.0637070403708
0.968682895816 -1.45678975341 -0.377462935328
-0.249420706566 -1.70527155944 0.15374894198
3.86669958223 -1.28403688148 -0.20683503247
1.38026473661 -1.47758734991 -0.548775657736
3.63980450957 -2.22557203732 -1.45307828379
-0.520044676325 -0.612933074181 0.969434017616
-0.526119910279 -1.44848968493 1.16596736776
2.69462702047 -0.275006398888 1.21132243581
1.54942947647 -1.39130872298 0.672948063004
-2.60190710184 -3.0130308253 -1.04601469371
0.260776928036 -0.365559015282 -1.25764898933
0.607087037276 -0.278787958637 -1.18562829396
-0.515713845344 -0.917381411856 -0.631805463743
-0.49532002173 -0.899314646491 0.0316212686831
1.79284694737 -1.72386231045 -0.00169688416597
1.71153620851 -1.84179546794 -0.127512259515
-0.497999980225 -0.780200516228 0.806097365346
-0.507862376784 -0.437491544372 0.819378527268
0.210585580808 -0.683415390126 -0.552173723449
0.1474867446 -2.88669458952 -0.508456931956
3.80788294909 -0.974537961545 -0.314175992972
3.63761716971 -1.12849596855 -0.945094233423
3.76532028953 -0.329539166804 0.763071124825
1.31455199213 -2.13739052292 -0.185464615473
-0.414985114222 -1.09189754083 0.60365835335
1.24670385528 -3.03543284077 -0.458863554411
-0.302896214236 0.768719598138 0.332925952351
1.25653234542 -2.68639724706 -0.0797577284803
-0.0936198022035 0.310140924747 0.414101693893
3.91713866123 -0.37290274611 0.609450787257
1.70652473468 0.184569097302 -0.771911334929
1.75315866449 -1.79586639589 -0.265623332832
1.13594956118 -2.95694987035 -0.367864438546
1.4680796635 -1.23248700348 1.28686876174
-0.140471369232 -2.49741944402 -0.173854772254
-0.452302338966 -0.530435635647 -1.3766078054
3.64971221425 -1.528582887 0.833228705586
1.89562261307 -1.56513758711 0.718658643371
1.61799496804 -2.58719248015 1.36505848718
-3.04347855947 -3.03656208791 -1.43555705949
2.86586422648 -0.806366531166 -0.713230845264
-0.551500979237 -1.09821395303 0.856250061134
-0.56190779338 -0.68484594714 0.0812279258025
-0.588627130525 -0.356569426002 0.894532125134
1.58710022099 -1.29872611161 -0.0575873482612
2.14154307052 -1.25996050883 -0.874401335148
-2.32033510856 -0.254489437981 -1.27149897488
3.75867581422 -0.308542333939 0.520574783804
-0.240943889417 0.0570462748864 -0.639463703069
1.1225855848 -1.82323586276 -0.710353804572
1.18981997877 -1.24587918705 -0.677597799544
-0.306303435751 -0.879117701387 0.784959232018
0.84630817339 -3.28830315636 -0.210657689296
1.31220119571 -2.54221389637 -0.624947709238
0.00382776097063 -1.52945153221 -0.311946169139
1.58371782326 -0.882054210858 0.111752775897
-0.0837158099522 -0.0324094129391 -0.448595597915
-0.502733561835 -1.25071687091 0.72252357817
3.4024498641 -2.0451144977 1.31748786342
0.0300252321357 -0.54872113526 -0.721067973021
-0.496833204098 -1.20995520223 0.292894366928
-0.533167815421 -0.987677711184 -0.124761142957
-0.50034946612 -1.1417365927 -0.101144887118
-0.103944501313 -3.24732158869 0.00121506401652
1.7163715457 -0.572960464357 0.643641187545
1.65633537363 -2.47669167552 0.840341459583
1.65194511464 -1.11190965496 0.79798451684
0.825945043945 -2.62083952167 -0.674865498987
1.2850288538 -1.94067080809 -1.27168524849
-6.76664167669 -0.168893251024 0.759344441337
-0.416071045159 -1.13708632472 0.0339164912353
-0.505372891444 -0.282255369271 0.715544771826
4.01076738347 -0.778937872815 1.49034496212
3.69455328865 -2.07792095591 -0.797337454337
-2.32692189883 0.492418834957 -0.9612812113
0.222488422543 -0.646141209792 -0.559455070209
-0.506720831516 -0.805409490622 0.0358931189441
-0.528679133395 -0.626958314697 0.00726031529209
5.61036449359 -1.47680287234 -1.11005195783
0.452138455125 0.605541898112 1.43564414173
-0.40477571504 -1.57875483402 0.536644322759
0.501603144748 -0.85932987143 -0.347250158396
-2.84580003808 0.572825192683 0.20348027242
3.59125924187 -2.10416100536 0.871366778794
1.44518815534 -1.18076753686 0.710979314306
4.76647484039 -1.66384038743 -1.3452972786
3.51580280884 -1.03369372299 -0.832534132029
2.63619255013 -1.38481575155 -0.360915589261
-2.7955645366 0.468763138478 0.151693372434
3.55819182433 -2.06231561445 -0.748555291918
3.75684243292 -0.367811382446 0.543353588889
3.7300059601 -0.282339890575 0.556993360935
-1.41153362355 -0.939179426269 0.274348742267
2.41317314274 -0.07905310771 -0.231164880348
1.38158410331 -0.891514664043 1.41975359148
-0.360282521588 -1.31780644821 0.743621631727
-4.07937141328 0.628854659319 0.711446126659
1.71733929482 -0.703376637695 0.666663948943
1.49391753327 -1.15356245105 1.26873089477
0.243355615365 0.0534727911521 -0.874790713772
0.348945295729 -1.04333572653 -0.124586240018
-0.451143349254 -2.37744030185 0.503922707693
-0.495282439983 -0.925735591829 -0.23294147132
-0.430952419989 -2.91075402911 0.623550307161
-0.523128005543 -1.03314243449 0.307144406827
-0.304973434159 -0.625179048638 0.773930766858
-0.131444510016 -3.9630607151 -0.51959699485
-0.458384903201 0.929922273864 0.366514061573
2.33338644405 0.623607042009 -0.55530118011
3.83562783382 -2.33621104417 -0.0273092800759
2.8864490676 -0.130462741986 0.0266418182763
3.66540780698 -1.91920754198 -0.106553126968
-0.513468432662 -0.207593877561 0.818515901009
-0.5053623377 -0.275942303634 0.716715071644
1.61466087183 -2.39648430453 0.798198315721
1.48465843153 -0.117400103339 -0.360086580445
3.098061126 -0.534640197361 0.194070142999
3.62087803626 -0.203023454933 1.12357680114
2.55034817636 0.295249955775 -0.00432516344882
-0.260970830176 -0.479059548427 -0.0664912648917
-0.246574674204 -0.42153811807 0.0312942482041
2.85859592627 0.675682555765 -0.896342070959
-0.431260741104 -1.05620023113 0.24357782636
-0.0738964504477 -2.93327333805 -1.09132154747
1.52916425765 -1.15000397969 0.655878770241
0.170872254641 0.01213656625 -1.07618347687
1.76731784422 0.0111029655555 0.986991871847
3.60138117164 -0.119717523636 1.12008724345
2.54013804809 0.316060914696 -0.688563730067
1.41847515758 -2.14836265281 1.49584366745
-0.385486341402 -0.0386246749027 1.04816152915
0.614779827738 -4.6497677266 -1.26595775914
-0.239203105144 -0.389649727599 0.0723955479079
-2.77478167527 -0.91636490267 0.145901274942
-2.2031929422 0.526400097059 -1.12030709825
0.930512598331 -0.589506404321 -0.180041822486
-0.383374609689 -0.784224193914 0.711873019102
-0.387760795812 -0.723999694632 0.772837026338
3.69330101207 -0.613271328284 -0.260134304182
0.884648294984 0.613382306627 -0.147097905637
-0.243813090514 0.3163154357 0.192111673686
-0.27107939412 0.547720265133 -0.614367346836
2.32825216266 -0.660111820971 0.157334186099
2.71406499447 -0.483305890155 -1.45070040963
3.57657796594 -0.163947348278 -0.481041970765
0.301949188345 -0.991073068977 -0.581080589712
0.619306504202 -0.973884147234 -0.556585370465
1.63182414784 -0.79703453609 0.685245525421
3.1366054849 -2.10447469485 1.47855685265
-0.396400324126 -1.9933817886 0.526326695535
1.9625820417 0.62088177076 0.332320436005
3.79749335945 -2.19083761143 -0.172685048333
2.70437642464 -0.0357090332205 -0.0361326755151
2.96296113086 0.0522698861322 -0.406842070345
3.25545772746 -0.313186322517 -1.47238560797
3.60610555355 0.717545399538 1.34905392646
0.109504612872 0.563084286048 1.24554793195
3.93673071899 -0.726526014093 1.26033030885
3.40185805772 -0.403085384762 -1.43280356903
3.65524121432 0.585744807791 0.408089270011
0.284338714127 -1.71425945125 -0.537210208597
3.62935517155 -0.1498167048 0.260510830027
3.63167999072 -0.715017586911 -1.45274396525
2.78450186718 0.297014530376 -0.883771225326
0.65379420456 -0.473829320498 -0.892809455248
-0.196784303237 -2.0563917932 -0.601855660324
3.97714004388 -2.34557684617 -0.566806131551
3.85101384198 -2.16680101293 -1.21836365213
1.49399142973 -2.83182079395 1.03238643329
3.96281149895 -1.53651183591 1.38956601129
2.62125655373 0.505333565083 -0.372241118685
-2.02323125005 1.09936113255 1.04712702946
0.976293496371 -1.04188751037 -0.344285209854
0.884003764857 -0.848472828536 -0.270023324837
3.53489689712 -1.9455680387 0.879045840151
3.52169307694 -1.34932890558 0.80309494069
3.28753402013 -1.21382426287 0.119810562682
1.52592509614 -1.06491810624 1.09788370325
1.53687363224 -0.913472446185 0.114409114985
0.604020138021 -0.846380743482 -0.572918773649
-0.296539529109 -1.99094857962 -0.73242602901
-0.456163524876 -1.84579486327 0.157740011055
-0.429936744224 -2.21997569683 -0.0822551219828
-0.432113737168 -2.22888516954 -0.0278403367655
1.59040535513 -1.09453716994 -0.382237086461
3.24848004988 -1.18465591372 0.0805797133117
3.58450267979 -0.381383121184 -0.123623640472
0.559625672959 0.375447932307 -1.05478621371
-0.455748233288 0.0795606662802 -0.553810455524
3.44868684064 0.816679857074 -0.0432314200855
3.84299400938 -1.36469686929 -0.295426885109
3.61884038439 -1.36807745378 -0.800344672944
3.02649999905 0.588918514192 -0.763610768204
4.01446965266 -1.27637233104 -1.45839545738
2.63723236567 0.502937379721 -0.894177761617
-2.42103762577 -0.252843303579 -1.47346956071
3.63599757647 -0.1814189821 0.79189996391
1.61174468666 -1.20979998559 0.192101755857
-0.484023718834 -0.924967757689 0.34791375282
-0.494549422209 -0.845782016175 -0.183512648348
3.90353997524 -0.929598764885 -0.179768943085
3.05427722203 -0.617797884871 -0.117347750781
4.06143881281 -1.25115243434 -0.822182096295
3.98933598346 -1.14190522818 -0.676000787174
-0.471663657716 -1.02298085203 0.0549730139201
-0.721743018433 0.845394331853 1.20953432173
2.04786317714 0.655548671601 0.117634412496
2.1376195481 0.611475449829 -0.40956172005
3.66519581868 -0.581222009286 -0.0900670100578
3.23222681854 -1.53066927467 0.0922627008769
3.28753758577 0.085798528565 0.664754421709
-0.454237237985 -1.57084762276 0.614992628432
-0.427781941582 -1.25014703483 0.0247350904559
-0.434679144541 -0.645039174986 0.562161953883
-0.274528309346 -0.666224591034 -0.915666075287
0.622944994651 -2.42337139329 0.0210894717969
4.36433378501 -1.18655664503 -1.46316977671
-0.547137386969 -1.10311881542 0.844443478488
-0.560870009468 -0.936996948076 0.873122506236
-0.563188401948 -0.849137428032 0.822968086107
-0.548719573535 -1.47960919061 0.84851832818
-0.620550761818 -0.163750019743 1.00075396671
-2.33971472387 0.483332827316 -0.753635573867
-0.214352239515 -2.01652588735 -1.1344199678
0.454166652794 -2.24809616024 0.639283363737
0.571943348227 -0.875276762266 -0.349888059569
-0.713622778283 0.49591433195 0.128887045371
-0.330921057855 -0.734015932116 0.8130941108
2.61851949671 0.571005539496 -0.432707955165
-0.538898296006 -0.89138478556 0.554441657858
-0.547897676196 0.603879265503 -0.477494382935
-0.573445290788 -1.20698874415 0.696690498401
-0.517308499422 -1.17157600805 0.287970928544
1.48741463606 -0.856051531026 1.31460318165
3.71574799613 -1.85230675306 0.00589135396519
0.266594065916 -0.890599294258 -0.345201309504
-0.335618693543 -2.0207425043 -0.745351596589
5.13593670072 -3.12806985462 -0.653986179128
1.03867256168 -1.05762726622 -0.497199400097
-0.271542831106 -3.20092654662 -0.252517476096
-2.38876764302 0.656213011243 -0.954569786859
-2.31125350888 1.01204226827 1.30234132635
1.12487149431 0.642627719786 -0.520488249046
3.42960389259 0.672691436612 -0.0225137036201
3.50682520415 -0.756843868061 -1.43101169749
1.42420481393 -0.919247691644 1.44267452386
3.55613477347 -1.45308349307 1.49377191634
-0.524873075582 -0.679249508454 0.131147849101
-0.582900561111 -0.708633109272 0.98450526593
2.85446830148 -0.766814496283 -0.208873658321
-0.559137546098 -1.08453658937 0.873665952529
-0.280110144207 -1.38626010407 0.135129060994
-0.453480391323 -0.557764590495 -1.14502314144
-0.159561229362 0.592408876014 0.0203590506062
1.53529606712 -0.970492419474 0.710577912528
2.14951192857 -0.0940770545197 -0.516184278784
3.4526053799 -0.570271816875 -0.168089446973
0.502755000655 -0.401050535541 -0.717814107197
0.748110159195 -0.376900681692 -0.893686446547
-2.30352568842 0.437954551463 -0.443995354967
1.39881462116 1.24972281023 0.905787164707
1.13023067817 -0.857308946787 -0.393438922596
5.05130554322 -1.08830807053 -1.49702825563
-3.79844502051 -4.49506264325 0.466689090176
-0.725286497416 -2.53967033123 -0.473432412431
3.76693291737 -0.182956190788 0.520870371282
4.31562386573 -1.35773186214 -1.17794211617
3.77926091063 -0.403662446295 0.5348506541
3.85651941754 -2.3943319577 -1.20350295939
-0.587000323886 -1.88219159528 -0.214799050338
3.642445296 -0.171410115308 0.606964555047
3.65539068694 -0.293034542651 0.613366798186
1.5697354287 -1.20794600713 0.651463957072
1.6123827539 -2.38025181884 1.24112533825
1.5741172915 -2.69916038938 1.25026897239
3.5051687844 -0.730786866212 1.3750413392
1.60829068467 -2.78341164506 1.36842631055
3.7453826091 -2.04584482633 0.3447838708
2.68422069463 0.460831625928 -0.627742050046
3.22422961986 -1.07519079477 -1.31192526922
0.012851208206 -0.526192052256 -1.13849621371
3.82349959281 -0.999750473663 -0.508439849536
-0.98364277826 -5.73113268371 -0.369565293431
4.21795814021 -2.10904885106 0.0356034497445
4.51540435217 -1.60250691278 0.128909363893
5.07879119649 -1.3729869982 -1.33761677313
1.49248364459 -1.76996546018 0.322146557629
-0.603739991578 -0.0878870515761 0.973882654288
-0.107293896184 -2.55271005817 -0.10480937017
0.889962752645 -8.42078246957 -0.424386211954
-0.557230098456 -0.627584963899 -0.12952026896
3.49432327541 0.575076739036 -0.569758714953
-0.478419623479 -1.08983088984 1.02419899098
-0.557891280323 -2.69470538251 0.606729453062
-2.49171663264 0.544476355995 -1.01252708367
-0.620712599421 0.564454572985 -0.296715218368
3.80665947528 -0.371223114863 0.704465693361
1.29575837332 -0.918129567322 -0.175613392783
1.75497346246 -0.954055034784 -0.974748278895
-2.30167184722 0.347715048466 -0.808281427991
-0.51935544577 -0.693885754661 0.0446937354632
