#.PCD v.7 - Point Cloud Data file format
VERSION .7
FIELDS x y z
SIZE 4 4 4
TYPE F F F
COUNT 1 1 1
WIDTH 1071
HEIGHT 1
VIEWPOINT 0 0 0 1 0 0 0
POINTS 1071
DATA ascii
0.916566377139 -2.79157914455 -2.45709412276
-2.80780281232 -0.0370201126729 3.54660255224
-0.787537383562 -3.54713925883 -5.04819906835
-3.16734393565 0.752740704124 -3.42797138847
2.07867835223 0.853542017544 -4.39966632498
-1.50597578146 -0.812698723216 -0.916043742134
1.86875370339 0.203628107784 -3.55638223864
-0.216707057193 -3.95353456679 2.69120996652
-4.02709909091 0.821001090299 -4.95346412941
-0.213880733006 -3.91046794177 2.11293591843
2.10903522076 -1.1328761896 -3.6943505703
-5.39835611601 -3.616370279 -2.0302116725
-2.25352737303 -0.0792552809165 -5.28004771803
1.82326358799 0.218489484401 -3.05595924546
2.36161695221 -1.91321158143 -1.4975897127
1.43555619468 0.909697713179 -0.999752835245
0.551135773805 -0.518344496352 -4.80592984902
2.51035745278 -0.341357906556 -1.6249771942
2.1305127135 -0.62284085611 -1.07288279122
0.519189467632 -0.0496192133614 -4.80594455392
3.12758030726 0.291514510407 4.04557071832
0.676714257894 -0.5874452362 2.56104185227
-1.68218760022 -0.636173929648 -1.34548516293
0.641499985132 -0.857547566496 2.53014102369
-1.7119162565 -0.901418199648 -1.06016982074
-1.68347737287 -0.684750905877 1.53741229908
-1.60172549805 -0.174623598361 1.57138391801
0.5414732535 -0.11942861517 2.66367269152
-0.451038397819 -0.566251913036 -1.46357389785
-1.51044894765 -0.332043484533 -1.30176367783
3.50493659862 -0.279109663114 1.37276806738
1.49335563705 -0.586892420508 -4.96364934
3.93799270709 -0.858654294431 -2.42047891092
-1.50251422059 -0.510659872273 -0.574511679828
-1.49101473436 -0.648446587335 -1.37070844154
-1.05411681009 -3.38424038436 1.98688520118
1.4467499271 -1.99864156226 4.89052247771
-2.92107364356 -1.36362978561 1.4494524115
-2.97303740989 -1.40699670824 1.53963475181
-1.66607824936 -0.0943709310701 -1.27522818946
0.92813404666 -0.123004123132 4.2134663919
-3.29462740878 -0.391646297424 -0.765351823224
-2.95628381739 -1.79050668451 -5.06036729714
-2.62881985729 -2.23334576485 -5.77647114619
0.00513102806549 1.08131238585 5.0724710163
-1.77483274095 -0.458227234705 -0.63658486766
2.66616399695 -0.113640673951 -4.91397854859
0.2242422381 -0.178581890065 4.06093700816
-3.38180179157 -0.284355666868 0.654196592877
-1.5002230322 -1.52879432217 -0.0678540018622
-2.94353791782 -1.26343618493 4.01936225067
-3.18061432449 -1.24115861823 4.00724896044
-2.23148025282 -1.26458011957 4.09955943732
0.327996592997 -0.452113015657 4.17720411619
-2.14584000944 -0.413517155658 -5.00951148084
-1.4598957106 -6.98620613663 -2.08444049138
3.1973990898 -2.11874464066 -3.59589892031
-1.57044281854 -0.245693046737 -0.043501971641
2.51293706316 -0.443799917557 -3.03274055884
0.0653596380505 -1.35123823899 1.18995958381
-3.39636904968 0.781824264247 -2.21765942506
2.85312081837 -0.398388646968 -3.02906679562
2.85728200381 -0.526131257037 -3.02565743568
3.49591871998 1.21891390181 0.678303012561
-1.09543082818 -0.230204447256 2.27751787861
-0.585893232655 0.0570098513176 -5.11854382053
-0.728595728762 -1.06958770106 -1.47624516307
3.17331198546 -2.14224187595 -1.14505660833
1.11353590414 -0.572416639396 -5.00992425644
-1.43280111352 -0.763341531491 -1.18911621451
-1.55897577735 -0.862633209143 -0.0544929373581
2.6153638581 -0.60925445517 -4.95656836092
-0.975998280273 -0.149713615388 2.39466801112
-0.130012158065 -0.844197273751 -1.37044758832
-0.415620577804 -0.760946533578 -1.38719234986
-4.02554274266 -4.03615541533 -5.39663819568
-3.61890148228 0.902852824309 1.16444453526
-3.44527250256 -0.517939042552 2.03478911848
-3.56978935904 -0.930216443981 0.792288099319
0.126985879682 -2.08409678941 -1.84187383189
1.8151850271 0.236478391787 -3.05872659599
-3.67105900213 -0.565160403745 0.613880223032
0.172346137653 -2.08015079718 -1.86420638769
0.805304318087 -0.868774047286 -0.74173816678
0.00782677818227 -1.002191332 -1.39027530575
-0.32526219885 -0.273185610306 -1.86605567992
0.0123644621828 -1.6785809518 -1.32385854405
0.704255601071 -1.45142585214 1.6668113835
0.731436745577 -0.928972256125 1.47277560271
0.773467052179 -1.6628383876 1.42156983116
-3.81575727662 -0.760658704649 3.63206871872
3.34145048379 -0.90739494255 2.84329603133
0.592173244236 -1.96853537715 -0.936124217216
0.523162952115 -2.21845910264 4.50688713375
-1.56145764758 -0.381596188923 2.31927725399
2.42568802836 -0.208684156524 -4.93228947509
2.31054366559 -0.396615418432 -4.94058328672
2.19565307479 -0.46532687727 -4.95510650378
-3.20694710869 0.732846652667 -1.91918182049
-0.382501115352 -1.21985479094 -5.10686066772
-0.603490932934 -0.266356477052 -5.12005805918
2.07545653079 -0.585181960957 -1.11096094267
0.11863960362 -1.95122416581 2.70004773372
2.74202842097 0.157498510346 -3.01317077077
-3.40468326272 0.784063897809 1.12965322385
-1.95782202029 -1.36753735202 -0.0622917282058
-3.1036345525 -0.0379429748612 3.93520138589
-4.55072411057 -0.171532933622 -2.06236720001
-1.44720250082 -1.14992109125 0.0367640039933
-3.27783245429 -1.98022638044 2.74805318921
3.58842736099 -0.442838867568 2.42843304666
-3.08218260022 -0.576064217268 2.50272570843
0.401040953984 -1.49269254419 -0.378266587239
-3.56554881079 -0.707435379684 0.335764995051
0.645021104731 -1.31804318626 1.15438899232
0.72202453982 -0.824371122146 1.73037905344
-0.562993260162 -7.39030220687 -7.9255827663
-0.539220146718 -1.29881040399 -1.44377598603
-1.32927111969 -1.15176586819 -1.14109581998
-0.794582168589 -0.726122949317 -1.40303453564
0.669869592793 -2.00970792121 1.07847813612
0.527600227394 -8.08343414824 -7.4435559081
-0.638226005751 -1.07200824208 -1.37209835448
0.333325058535 -2.6230133412 -1.50656214016
-1.75396747824 0.315641381989 -1.12092736396
-0.318638045131 -2.78683560936 -1.79497530703
-3.39467515924 -0.36226478148 0.981441604298
3.50595670895 0.295556111095 -4.2609158641
-0.689518006016 -0.96642559723 -1.89814980977
-1.41536620341 -0.335989820519 -1.62092825317
-3.27312713178 0.139543849646 -0.887947626542
-3.97972839549 1.03391276892 -1.81375807109
-0.538563559008 -0.955393097855 -1.39351897065
3.44450289731 0.294376586983 -3.62519139115
2.93588089972 0.198858230198 -3.17934158557
2.89141581 1.03053845484 -3.01833014597
3.47924237624 -0.42541837871 -3.67015661026
2.30750470708 0.0947964345667 -4.93033411627
0.970492809475 -3.43823238899 -0.669325370719
-2.12180797042 0.62232899082 2.20897806921
-3.8066615505 -1.16076303232 1.63132817115
-3.90948801177 -1.57016747179 -5.54120051272
-1.86746325179 -1.23453508861 1.60764430608
3.6255813601 -0.835485827471 -1.97813109348
-1.75517955005 -0.702972634132 -0.896934302723
-1.55335330086 -0.27688639725 -0.43897513951
0.111250444115 -1.69790546899 -1.03405114056
3.07545048622 -2.57720681867 4.37719921877
3.02417632651 -0.624174855458 1.4195096493
-0.374344839019 -0.0543034772774 -5.10140369322
0.314837785462 0.907609150731 -5.12445891121
-0.314426272599 -0.377613869826 4.61629807982
-0.673335569775 -0.149132873772 -5.09362402148
1.40647681576 -0.475904939666 0.45542044249
-3.36274927452 -0.375937362342 0.617169457456
-0.565100287909 0.15460145999 -5.08808005835
-2.2487310362 -0.557440025732 2.53149877851
0.242871676368 -2.2544252326 2.15387226801
-0.987923562156 0.99586790626 4.78677855728
0.664000013862 -0.659025602148 1.95706154049
-3.91635393259 -8.74186918779 -10.3562034705
-1.0148712475 -1.11827329432 2.09226394521
-0.759171039658 0.67765895985 -5.03708690515
-3.47191027577 -0.438474589915 3.65287663469
-3.99912103681 -8.72715625032 -10.386417715
-0.0287294743153 -0.549599133443 -1.74138259328
3.36405803244 0.0403082885064 1.13746846614
0.634901942927 0.156686052839 3.93156463818
-3.51561615798 0.791212395552 -4.19618323882
0.518419079929 -0.397480619683 4.21223205743
-0.767925389816 1.16407434871 4.57049779781
2.92754045341 0.031649732242 4.32638008205
3.59524024774 -1.97873208168 2.48071216882
3.19628883741 -0.618511134503 3.74996198728
3.23502146906 -0.888558160854 -1.17115433781
-3.61014349935 0.742422479095 -2.35622167081
0.734287053063 -0.719055337315 0.332187373122
-1.59055225639 -0.233000745763 4.56141202268
-0.994972758303 -0.303843071104 2.21566408998
0.252325598055 -0.732219029004 -1.35135053756
-0.994917986386 -1.07280173915 -0.992705449948
3.60000445938 -1.45656862476 4.12437296428
2.60573093337 -1.53458016231 3.84982108715
-1.13775840189 -0.160750534043 1.87930116733
-2.08530600333 -0.516030647035 1.7400653162
-1.11921239325 -0.287483336164 -0.131003150142
-3.90743682147 0.258564741881 3.10766173199
0.71608370969 -1.29217266749 1.37638160517
1.18882344656 -1.0228840329 1.60569237638
2.78332730174 0.285801727891 4.044380093
-2.9926391094 0.0688126200039 3.5067231136
2.54133905592 -1.24439445271 3.96867464033
-3.52318560418 0.289374739781 -0.275280257455
2.13569961282 0.487525458197 -1.16657730581
-1.90664916878 -0.186857139113 2.27015062045
2.94198876752 -1.8252175038 -0.649855956413
-2.5728400564 -1.35325157192 4.89800352985
0.59210379507 -2.02029499989 -0.863491058785
1.82705182948 -0.192695162182 4.30433073052
0.8017510627 -0.871229486822 -1.02046891007
-0.549894626969 -0.0433054095462 -5.11567151115
3.53960039859 -2.73878743469 2.39985246145
-3.61140269688 0.777878440885 -4.85670645747
-0.569578340768 0.416807242076 -5.12456559779
-2.71938268879 -2.32328619085 2.1464757866
3.73868724313 -1.23521169513 -2.54948117708
-3.06519515042 -1.09165887445 -4.72300869568
3.70268553973 -2.59249610846 -2.65681364094
-4.73749039248 1.01219443746 -1.47171284117
2.97541372566 -0.631871460764 -4.82541898906
0.673241788293 -0.831447094565 0.774493316744
3.88292371257 -1.98852077353 -4.62443683922
2.31360530714 -0.154848010084 -3.54591322101
2.07541682878 -0.530641348955 -0.96515375849
-3.39138446412 -0.527407644282 3.54736434489
-2.22894386962 -0.0885680448929 3.8911337647
3.29837095887 -0.240501222161 3.7460982481
-1.65588132862 0.0204989945219 4.61783180288
2.30334345317 -0.90994593316 1.33208202321
3.32857187521 -0.657415456546 3.82675066452
2.69489732894 -1.21084093635 1.03308276653
-3.45241874796 -0.532313022663 1.56867713139
-1.42995930347 1.01066565668 2.37539658018
-0.420027077492 1.08414558835 -1.6265486264
0.703713686921 -0.915245749215 1.3543194474
3.40182607189 -0.658757060181 4.04578941869
-3.15391423264 -0.710234838722 -4.89593662783
3.50427192355 -0.910955844432 2.75127032436
-3.00870146377 -2.1218421242 2.63560480953
-3.12393692805 -2.63691409445 2.6098936025
1.18145563211 -5.07052786484 -5.72124445327
3.56022715746 -0.102587354202 -4.70012059531
2.65811067437 -1.47793266853 -2.91063104956
3.59246082626 -0.469567220275 2.45564963527
3.46014929146 -0.260300152121 -3.16060912402
3.43338904557 0.183755798664 -3.4218321467
-3.01626952768 -1.16980589133 2.45273558244
1.84090899161 -1.4954335325 1.09568943468
-3.5121393682 0.127009065125 1.81773156154
3.61013900376 -1.44817981753 -1.32056366393
3.36934540998 -0.574386455482 -1.35714934005
0.0382521843631 -0.163961598238 -1.75736332935
-3.57572128189 1.10882047607 3.34882979418
0.0996822853043 -0.564755146084 0.443311468324
-1.55563200681 1.01256409318 3.48354792304
3.47850305498 0.398663027983 -4.61347285473
1.03715262875 0.666938545984 -5.20684613219
3.40975163307 -0.294074653067 -3.16737570342
2.3595509451 -0.456676067971 -4.89207803366
2.57613902895 0.31809713112 -4.9180952217
-2.22979664004 -1.80992216398 4.38040987653
-1.93044224542 -1.09772761718 1.30237290786
-0.656655669451 0.2178875381 -1.95093285831
-1.47261629011 -1.23383245167 -0.279132354341
0.737268043146 -1.46533827399 0.959833279677
1.23056589747 0.166174578864 -2.93941543175
3.83130279135 -3.12549173256 -3.51195931496
3.49917912507 -0.813314413192 -2.1631812812
3.37027119205 0.718165020427 -4.99833811049
-2.60381723636 -0.262995522133 -5.09208561852
-1.49012489439 -1.33181592734 -1.65628649798
0.687034235148 -0.779557054492 2.55703214651
1.75721489576 -0.520333455999 -2.95259912244
3.36831102387 -0.990865305172 -3.2865364447
1.00710500336 -4.19436717935 -4.93686636259
0.591896221519 -2.18046971376 -0.651446773582
0.555823089119 -1.44020923549 -0.469408743303
-1.45358602216 -0.227041736495 0.0129109412949
-3.44424222405 -0.3923067183 1.41351929539
-3.50266245755 -0.42736676824 1.05923270412
-3.3273084782 -0.0304128210695 0.0289031311387
-1.46705409887 0.323357329137 -1.79417224196
0.55743843725 -0.30208795492 4.18194814553
-3.39121732547 0.770083004823 -4.68550768645
-3.91006227349 1.12042428698 -1.51758936866
-1.17269109663 -2.42540447131 -0.628103161751
0.279039851434 -1.16917553065 -1.49280195786
0.126883157095 0.293484652069 2.93166534618
-1.13516088113 -1.3811750558 2.29239151222
0.649484479035 -0.664084579039 0.624741471457
0.661726656448 -0.588816264348 2.29427699393
0.720005181898 -2.67061088617 1.69112973807
-0.386120669774 -1.21596663097 -5.02080990493
2.72744987107 0.0299245412748 -3.05000853026
-4.45952088942 -2.17661663808 -4.05027683587
3.29889970829 1.03792608332 0.545965626898
-1.08275013696 0.799165478512 -4.81558428376
1.20402063922 -1.90375228521 2.42073720924
2.38731722127 -0.0137278191184 -2.94710775632
1.10316754751 -1.33422211732 2.24960117735
-0.0279895881214 -1.27527307747 1.45701017881
0.636852977488 0.169454047515 -0.0159219096677
-3.68486348531 0.0211326032717 -2.62990631396
3.67895951344 -0.458233021043 1.44205473873
0.833965833852 -0.41107928656 -5.02983828408
3.64969470086 -0.139400392619 1.39493405233
3.68950970673 -0.139128184976 1.37675231282
3.8989904355 0.0566770222169 0.969877400969
-3.49212603206 0.929164040616 -2.69149442541
2.53157553726 -0.0546448423641 -3.01435868981
-3.1542837268 -5.28279593191 -0.885300496333
0.162276175041 -1.73521562074 -0.951033092869
-2.06041911208 -1.26117428783 -5.043404913
3.38103398967 0.628652369088 -3.10815613161
2.95575500026 0.286911268896 -4.79276656043
-1.50429065001 -0.858378184538 -1.02404599172
2.20331561645 -0.112926508432 -4.93250515471
-3.35746231633 -0.0753906480981 -4.18945009346
-2.16704193083 -0.719213152758 -5.35259050625
-2.32612372063 -0.654667514323 -5.38377787214
-1.62105610845 -1.13115716695 -0.383351395632
-1.62987089602 -1.30419517753 -0.403383334291
-1.28037723675 -1.36192839137 -1.29055651937
-4.43664601327 -1.64424181724 -4.60524747688
3.776382641 -1.40266987513 -2.23269497998
-3.15881099977 -1.00457833883 2.03376497988
-1.77939184028 -3.79096616969 0.831578969623
-4.47259258568 -2.6149497183 0.0256914825096
1.45783999793 0.297488867147 -4.97096266155
0.395352926101 -2.84819528205 -0.116299556995
1.29544136115 -0.982142599067 -5.00745770022
-1.5606782114 -1.93773539439 1.7582292169
2.14095321394 0.534283945381 -1.56432094999
1.99357407754 -0.447001302306 -4.95299512619
-1.40655131667 -0.539075239318 -1.38991712042
-3.34682778666 0.88218435359 -3.8956571477
3.46107269198 0.705556092391 -4.7195968063
1.41117787448 0.861232054614 -1.27630903402
-3.34527456936 0.100605607534 0.0455341731667
-1.14960230849 -2.28876268294 -5.88160879673
1.46583979261 0.16774985749 3.4164305404
14.1553097479 -8.96605792127 3.57708162649
2.77921876856 -2.01350699252 -0.103488606545
3.25025859686 -1.61857564632 -4.54363893891
11.3393420688 -2.59525622425 5.36579982417
-0.501322102407 0.276707429256 -5.08244093504
1.88983426305 0.229962242348 -3.00364126481
0.605387064695 0.485848902759 -1.69515334139
-0.655232519771 -2.63682525237 -1.88420107524
-0.873679357728 -1.64489088469 -1.98175994493
0.76507233312 -1.10739397909 -0.317070864902
3.62549882275 -0.876575919943 3.20342264153
1.68400495193 -0.334327484984 4.30552247918
1.72886371819 -0.438905077339 4.3133397203
1.77359807264 -0.538877679993 4.33914450391
1.01151097862 -0.55673080095 4.26315376413
-3.38078696706 1.03007181053 0.24648072008
1.43311649887 -0.229905492093 4.27128482699
-0.967194265089 -0.562073517003 2.11539666083
2.79650450296 0.981299258912 -4.33634961843
-3.52386773714 -0.147240823407 -5.17599485226
3.77646528737 -0.282906684715 0.376472462337
2.95581371204 0.292058217875 4.02575403341
-0.518133838754 0.158665571614 -5.01800645476
-0.977004625965 -0.378709716581 2.10325952857
3.32938818962 -2.3020224763 -1.54025792637
3.63520083587 -3.80197272296 4.59108626214
-3.95525362224 -8.11978416972 4.56109032868
4.13416818398 -2.52979469614 -1.62428625388
4.11589826332 -1.93214950937 -2.01990190553
2.36193981254 -0.083228783495 -3.03632456507
0.00294376612254 -0.363482122367 -1.7476391379
0.0369953605316 -0.479116370516 -1.73948590304
0.645537083015 0.918204318289 -5.03658469065
-1.49561534016 -0.141899541641 2.47506917009
11.5295124486 -5.31532553968 5.36820381158
-3.36068639544 0.157668086216 0.541018059469
1.64954769636 -2.51684321958 1.13265025325
-1.41382985953 -0.591720022767 -1.71051489079
-1.51358921002 -2.09859555422 2.25757637859
1.90629814262 -0.493933019248 -3.0657721406
1.40359548169 -1.25414317055 -5.01672283123
-0.4884689718 -0.507106749699 4.53736993073
-0.39844460878 0.313451182314 -1.76635624572
0.813819478967 -1.19107891072 -1.12176378313
-1.64566284075 -0.0368274849961 4.58996112154
1.6614697081 -0.596555051312 -4.97878415859
3.72497313326 -0.746009131202 2.31159561611
1.09896706984 0.224980289035 1.77600753564
2.01959299967 0.324953376995 -4.90140449847
-1.05006380738 0.81727643234 -4.74841363774
3.07908239403 -1.36471129913 -2.92613171175
0.626948595137 -0.912510581957 0.167288991325
-4.41227192727 -2.79369965767 -1.8544033294
16.0513113148 -9.65487815356 3.62190773022
0.380082430237 -3.56004095871 -4.69649737183
-1.41976132641 -1.60815252449 2.29805316071
-0.999729734843 -2.16503637709 2.83306020512
0.727838604355 -1.0569227005 0.506759091832
-1.02697820479 -0.300515027772 -5.01104135895
-1.23234078216 -3.364781431 2.41146546791
-0.0523615538548 -0.160685286421 2.52567074596
-3.2859616894 -0.55199317637 -0.777197020861
-3.0373932567 0.100300239464 3.50119805058
-2.70594056076 0.135357335426 3.52554839347
-3.85207905501 0.253568998378 2.41384540451
-3.11832723666 -1.36428111105 1.70345760387
0.360284875019 -2.33054226911 1.79853362536
-1.49624915543 -0.254171292671 2.24210897724
2.90102945886 -0.622337770358 -4.82537447499
-0.642338815323 -1.96348356134 -0.699445498536
2.08477947419 0.769614942445 -0.705747042464
3.55825391804 -0.986203584874 2.73263600275
1.21619313697 -0.230343799489 2.80401747201
3.59302344304 -0.526990586218 1.12160812068
2.91712107117 0.894618573782 -0.427976590429
2.86680242043 -0.841927689464 -0.293899447945
2.86834849459 -0.822963334288 -0.281721434224
0.749370711108 -2.60046155143 0.0162931894501
3.46863264001 -2.29760163844 3.79138223461
0.0453169059078 -0.400561823722 -1.75295419674
0.413863278282 -0.565414241879 0.422184082985
0.0869225419228 -0.131869429179 1.92958877238
-2.74763144129 -0.0695364128023 -4.62808680156
2.89705429439 -1.86391499575 -0.651554341363
-2.90492518036 -2.6467702735 2.63419582597
2.04631900993 0.24221502254 4.24120027766
0.913096706817 -0.669753875094 1.07385256548
0.499072423972 -2.53988553196 1.64616967611
-3.02218009818 0.0615189483509 3.50321400419
-3.8189442368 0.355457045174 2.03493817482
-0.727338874157 1.04040362321 4.33809278244
3.1810828947 0.228769441146 -4.87838655832
1.07778269691 -3.9463340127 4.14650782589
0.57046575025 -0.399483227633 4.14731363208
0.0631134138336 1.064511305 2.59018617791
2.32468135005 0.735418781033 -1.14570973326
-3.56077760407 0.830504783203 0.282310396459
-2.89686800409 -0.389704681014 -4.71447799005
2.56583781596 -2.53603728346 1.18724661299
3.45353874979 -0.850389710549 3.79690459904
0.865086433225 -3.22092564332 -1.021886022
1.89283773368 -3.09498824405 3.74307054965
3.37709550475 -0.337224457003 3.6659795611
-0.0370292953013 -0.380584632297 -1.75240668564
3.51128406572 -0.603419815056 1.08816260135
2.59543742833 -0.00103537695732 -4.89261541845
-0.448788194874 -2.59814383236 -5.29504196445
-4.60551222722 -0.201574572758 -4.08158454743
0.621904304756 -3.88935748244 -4.40252314918
0.553399551173 -1.21029730523 3.83416858471
2.88593776952 -0.816759954845 -4.86187162501
0.36673850973 -2.60950733346 3.87803640531
0.562255341236 -2.76576979405 3.59613333118
-0.136594996152 -3.59132298205 2.05610550749
-3.52203322344 0.772967356181 -3.20774910029
-0.210912260222 -1.98636990881 2.68648250086
3.53580811467 -0.226531705768 -4.23622971264
-0.753940132769 0.453763904634 -5.04031972918
1.54053541456 0.690898663457 -4.02728527969
3.02270843718 -0.436814446679 -4.86269401462
3.46661213668 -0.261892199421 -3.1539426542
0.816794187184 0.605572988807 -5.23968407264
1.66859557127 0.586805421135 -1.57331375704
-4.32449218025 -3.02270469692 -4.53929005103
-3.05918722214 -1.37628057921 1.29772552564
-3.35348008213 0.0851799566304 -0.483639290768
-2.79151326723 -0.0596337005661 -5.18112176331
-3.56560051605 -4.78842682643 2.62574619096
-3.33940714615 -0.688335490346 0.0949311074173
-3.44505365996 -0.0400709091291 1.75886187817
-3.31636368343 -0.322182977081 -0.184457323175
-3.32669187127 0.26146481764 0.0262249348718
-1.12969270831 -0.152418178083 1.88181527119
-4.78884748718 -4.66583167683 1.56856382246
-1.14247664403 0.836987934613 -1.67692906442
-1.28757075915 -2.99216192629 0.47655157209
0.393736047025 0.798592276404 -5.24499118188
1.61894402722 0.66803690453 4.19527033188
3.39668853044 -0.703342652598 -0.977861849668
1.12900028425 -0.240284600067 4.23537443279
-0.429768521207 -0.316400360469 -1.76031662239
1.92294739411 1.13730961868 4.23324523331
1.67798266531 0.629663890584 4.09591970995
3.51740393127 -1.61967327033 -3.07659520525
3.38742629528 -0.783580196663 -1.68249458297
3.45402393988 -3.46207544952 1.88296085382
2.31075145719 -3.03764469768 1.39782171687
2.8507246721 0.00939050853398 -4.88129553403
3.3491844154 -1.06985332357 1.47008126165
-3.42548785004 -0.529891898886 -5.01408998369
-2.42018563215 0.000805734825247 -4.97479199865
-3.27696431662 -0.152873742841 -0.91502029404
-3.28038081385 -0.275292222705 -0.885245841009
3.04668769135 -0.849664371053 -1.68931177998
3.15211613461 -2.29517462032 -1.72532559092
0.59300560914 -6.07652796369 -4.7818602855
2.50945794738 -3.79537370233 -4.97340142405
-1.73074979706 -0.112258352228 5.6955034574
-1.44076202384 -0.797247247724 -0.88496783387
-0.439602666195 -0.872052179737 -1.55523022471
-1.38713092986 -0.353574160242 -5.48669515268
3.11418292223 -0.23954657608 -4.94168692263
2.17889938938 -1.2222588935 -4.94079132581
-3.45748870649 -0.297450972874 1.61694038766
0.71788198385 -0.883965689469 1.10433353257
-2.52148630207 0.0339822838853 3.86058823338
-2.97433970777 -0.0134804385676 3.81731075058
-2.24425429934 -0.00813126819493 3.91530711502
0.494049918671 0.859631715976 1.76076990642
-3.32388125609 0.898009153236 -4.89552598866
-3.95836725552 -3.15346020721 -1.30700855059
-2.79686701762 -1.2473493095 -5.92979940487
2.85493153713 -0.393948831819 -2.98543540315
-0.0305357462641 -0.501430491235 -5.0740554656
3.40879073019 1.04019396433 1.67999683949
2.86277366072 1.14662430777 1.90294624067
3.80066278716 -3.12179859973 -2.75529938344
3.57090172913 0.0338392518857 0.317757006765
3.69328583629 -0.230773845829 0.291943862184
0.72283407562 -1.28987345096 0.500444514323
-1.09242572612 -1.92498242652 3.27014204143
0.179396388216 -2.66933022664 4.44419492276
3.70609093776 -1.03739109308 -2.96391127537
-3.64362108838 -2.45897381319 2.38019597279
-0.0512183301292 -0.667879697201 -1.52009961901
-1.08281081714 0.839966590469 -0.930536145005
-0.449475384834 -0.83756098276 -1.51819442447
-1.4887124566 -1.58747926925 -2.292739275
-1.11508822394 -0.410105265647 2.26001609007
1.6742207049 0.899977456403 -1.03577392072
-1.49463218695 0.206154198258 -0.181702931606
2.9367380296 0.737103641362 -3.16530952146
1.08630318118 0.246964413898 -5.01628576195
0.133476135315 -1.06369877753 -1.0666463892
-0.424072048896 -0.884928202754 -1.43576061613
2.49683694525 0.669901097801 -2.85176452247
-4.09589615248 0.813204843772 -2.36489403252
1.96615708645 -0.0611609408401 4.33243329524
2.54935857353 -2.76675322897 -2.96300884185
-0.789412693561 -2.08508290372 -5.06154103374
0.654507406186 -0.629477180632 -5.0371351434
0.621209351025 -0.691464420285 -0.207873200381
-5.45741488724 -3.37483270181 1.63924694321
0.121427325533 0.31051703451 2.91919357463
-0.0200000146678 -2.7966472342 -1.24054284599
3.50747698184 -1.0503149201 -4.81732105105
-3.50758167424 0.0723195081749 -0.217213670929
-3.52439720097 -3.56277441058 1.66797059677
3.57740788402 -0.436307728696 2.42702257662
2.44025775156 -0.097266242909 -3.00095525074
2.02460825951 -1.92983109657 -2.8288108978
2.20544432649 -0.312737473923 4.41385097907
-3.47388231627 -0.647912651406 1.88714445561
-3.37934268967 -1.07775622266 1.13639852061
-1.47847853355 -1.73718124105 -1.89023033498
1.40493372426 -0.319087408895 4.2294426664
0.225916255192 -0.359406706115 -1.74362061286
0.518115591544 -0.388342935661 4.21519415739
-1.74190274793 -2.69325641464 3.98132004335
-3.53754926497 -1.26427927926 -0.208918875082
-2.32859372568 -1.11003434987 4.01737305489
-3.04362327524 -1.22743669469 2.05090224695
-2.55590903348 -1.17525306576 4.08473824328
0.798949885604 1.21317675716 0.31204831672
-3.31212944579 -0.341769552606 -0.606664423285
0.199565109668 -0.437190240113 -1.74483083603
-1.44539542031 -3.65693342489 3.44880702235
0.401926427403 0.598279778763 3.9662983558
0.0498999235027 -1.8380880356 2.08279669574
0.607861214732 -0.800596316624 1.5847428508
-4.15113309451 -4.45947411468 -5.6820691771
-1.68089142928 -0.0790975640936 -1.26249570391
-0.699719392868 -0.652571529917 4.68784605217
1.74583854948 -1.03994635684 4.08249650206
1.73853998442 0.571991753837 3.97701953355
3.06046737025 0.830763012797 3.77876008933
3.19853408921 0.815284609153 3.30391026309
-3.5485813867 0.00415070268151 -2.29055431824
-0.902650364691 -0.0623524979982 -4.91835303778
0.119303657758 -0.551746408641 -5.12075726123
4.03234484216 -2.99330407432 -2.6041138482
0.224894650691 -2.09964725686 -1.84138429964
-1.43072071355 -0.440343869838 -1.48060343443
0.960815739867 0.769360224096 -5.06539770134
1.00368695627 -0.96609869033 -5.03674202479
0.704021291006 -1.85935201941 2.41556261798
3.59515383768 0.444989742362 -4.1618824405
-3.49703177134 -0.0772441845031 -4.40140472266
-0.993738044297 -0.115327327585 2.42926675837
0.388348804804 -3.55780958617 -1.07433011559
-0.979554474734 -0.574505228139 2.10531285097
-0.0417618608631 -2.63188613222 -1.50500715809
-1.5349577802 -0.834937854376 -0.610849475686
-2.04294166903 -4.09294535648 1.18761757921
0.790178469964 -2.13170665332 -0.947097067597
-0.207950186804 -0.5090659053 -4.98271998254
3.38775107356 -1.31979211658 4.10702478867
-1.39150392196 -0.909313184412 -1.65926550865
-0.442075227236 -0.999838556409 -1.52798424244
0.861585674469 0.82297987043 3.75797632591
-2.21480097404 0.690708714529 2.22990582149
-1.38940839885 -0.903697878263 -1.66078924342
1.73978451186 0.530709565274 3.84374904733
-1.43961233314 -1.78706325577 -0.202087849552
-1.50340870212 -2.62055367643 0.28146010506
2.71074283868 -0.00753067099361 -4.88091419728
-1.42358736651 -2.40887802202 2.19902780824
2.73688160959 0.276521017923 4.16806009656
1.23175822957 0.911089434457 3.52752112393
1.28963657034 -0.391116047209 4.20839855819
2.31395842699 0.782009748476 -1.16523790383
3.49306867718 -2.2418743632 3.80036891141
1.04685684403 0.863276531708 3.89054436684
-0.105123176268 -0.107200877252 -1.76475585331
-1.62098579331 -0.0124156652968 4.56872520147
0.310632443796 -0.485757888607 4.21110607143
-3.48587218417 -2.40979517351 -5.22192915897
0.814708088273 -1.73726640934 -4.97396619307
-0.157431475913 -0.108620399113 -1.78101092862
1.58957277157 -1.14806728473 -3.65052222046
1.66397813124 -0.8731187776 -3.59454767434
2.20388114613 0.00712683302387 4.09517477975
0.656436492808 -1.10978640417 3.71054120651
2.65015263605 -2.06711073911 1.81593334006
-2.56391155171 -1.07210641146 -5.18668046737
0.437615207232 -4.51928966503 -5.47579043703
2.25979745452 -1.09392130002 -3.6413485464
-2.17364128949 -2.3283254458 -4.87621969465
-3.50570609586 -0.00491230567321 -2.54810667177
-1.93218365052 -0.0841930865072 2.26451165585
-1.92972954764 -0.0909287090754 2.26034249943
-3.20479135878 1.00312576936 2.55553105641
3.09061903212 0.331293952843 4.24606612018
0.391019692525 0.208198974586 3.96189952366
-4.91737690976 -2.80518781117 -1.4150191251
0.823625806966 -4.76829174327 -1.03757321185
-3.24961921288 -0.687816288343 -0.454532834244
-0.127247090642 -0.146795843691 5.1189397506
-0.364181937368 0.563673180568 -5.02763499837
2.18716107655 0.398643489488 1.17717832595
-0.26583013555 1.03001818015 1.9293097688
2.39250141305 0.615008338271 0.937853982732
5.23325930612 -5.45596408884 2.96331259948
3.51826006087 -0.2977539134 1.37047216759
1.69659438528 -0.933379384308 2.53665377741
0.468965770187 -0.467899292143 4.23107076395
-2.33492187709 -0.979593463192 2.03140060474
1.90920653125 -1.63709645604 4.12510507256
-3.27917459907 0.078340538747 -0.666822097378
-1.47664630397 -0.321978954098 -0.352788009851
-3.19081914724 -0.0270649462847 -4.37765413788
2.22557017849 -0.347143671336 -4.9630376863
1.99305214356 -0.479057215215 -4.97452170946
2.98054504832 0.24349686074 3.93033852159
3.46378563874 0.312080195234 -3.16849199037
1.09221516076 -0.612411502923 -5.04045667728
2.97935921721 0.112852526249 -4.87752336024
3.72142666654 -0.24141746241 0.238338446623
3.5645971926 1.07298991533 2.64406254093
2.33136410285 1.13603425482 1.90514674237
3.78487942446 -0.367047265822 0.155932017795
3.68642174558 -0.339426558636 0.282978331162
3.62687473966 0.0453792970685 0.497508093445
-3.45541570027 0.315860525906 1.23344835524
-2.66790722772 -1.00812761555 2.65660347815
0.962362820912 -3.30180892442 -2.0303446368
-3.4863068925 -0.471522953705 2.55707464426
0.568831290165 -0.696784302497 1.59870008838
1.18033346591 0.935121707066 -0.300746556105
-0.175227431763 -0.249220002615 -5.08754162104
-2.56889731304 -1.427915209 4.9000832077
2.28478974724 -1.01882701103 1.18923593801
-3.60116948575 0.707992574186 -0.406660104827
-3.38538654743 0.821777466625 0.549470105286
3.00647265732 -1.4067783626 1.23314076899
2.32643961621 -1.8076664148 -1.35699130547
2.33627708107 -2.38866006622 4.06190298462
0.375763950781 -0.422631416012 -1.73756202464
2.03786480394 0.855387635572 -1.19626329101
-1.49484198612 -0.403342035263 -0.172648451634
2.13354796612 -1.19579562895 4.45144208403
-0.586166629581 1.00636255549 2.18347610523
0.0275922798642 -0.525976389643 1.37624865262
-1.80192275023 -0.478556716896 -0.323959622999
3.64065488369 -0.524654073878 -4.11543220824
0.806738857113 -2.05211021694 -0.96400511928
-0.105478111804 -1.95748545609 -0.841320089675
-1.99304306931 -0.091469790834 1.63317633994
0.135661271526 -0.133961566737 2.60643446368
-1.92087639863 -0.094956544395 -1.3356629909
-2.07648233721 0.807940558653 1.49877923034
-1.96441321553 -0.0153050241954 -0.625630612271
-3.84741608174 0.250522219376 2.41390724411
1.75146953788 -0.450542374907 2.54660516037
-1.44699252493 -0.362487657293 -1.81980175751
-1.9502210297 -0.0914399385343 1.59635363726
-0.149833997277 -0.181325059477 -1.75786348127
1.34799455229 0.53111261411 3.93965301487
0.680113546095 -0.616484378526 2.55635457229
-3.84737349487 0.133125643285 2.10206824435
-4.03179169374 0.361997027037 -0.77879962619
-0.0295992894813 -2.4039723316 -1.53324077523
-1.72531035471 -0.231729631673 4.82338973455
3.11425143186 -3.17483889495 1.26519965538
-3.34427773631 0.31755046979 2.80826707636
-3.8966950797 -0.202790828961 -4.89810240268
0.295438700528 -0.258476545444 4.16134988921
-3.12086491196 0.603808349486 2.81649890925
1.98838161997 -1.27192951528 4.4672507868
2.0644770433 -0.422277283926 4.41988970653
-3.48540736014 0.852984194346 1.61319627817
-3.74247106371 1.10872852988 -2.21770356156
-0.572811256488 0.73958036565 -5.28664944097
-3.51361194797 -0.133806139104 -0.36419810497
3.53388424467 -0.124013906974 -4.25944092821
-1.30617534431 -1.23025014038 -1.21211028855
-1.47659415674 0.285899108053 -0.0571234300782
-0.673348536565 -0.765018764505 -1.77118038722
0.641434538151 -1.83537826846 1.62740130745
0.0988038818576 -0.878822735648 2.12706531498
0.531658884069 1.28661780108 1.42906637827
0.47630489391 -5.37632100307 -6.40375671744
3.44074200744 -0.279689068143 -3.17334845219
3.7352718852 -0.984361523492 3.49107712438
3.172385856 -0.54499861273 2.79991352105
3.37977109132 0.864472357881 -0.909646648142
1.12137146659 0.644083508395 4.06734401464
0.478703411015 -1.1549436025 -1.01831539089
3.89967898496 -0.477636104079 0.306336616661
-0.324003128866 -3.84648664609 1.48172297291
-0.483050855102 -2.30341303839 2.06116680144
3.44599266565 -2.39077759614 -2.1400382776
3.55280162569 -0.305297800808 -4.72899919558
-3.52211475339 0.714203233729 -0.162663942153
-1.57372604467 -2.055516725 2.48649912463
0.00385497920169 1.11851174423 2.52890646398
-0.210371312915 -0.142307446135 -1.83393614268
0.472787882366 -1.18702158291 -1.15751260867
0.817918091566 0.0748257946768 -5.0284381018
0.738950099607 0.0765541296263 -5.03435292943
3.68043921333 -0.460624966174 1.44358020836
0.658418912102 -0.0262036764571 -5.04103834392
3.64525305239 0.070706537889 1.12638645043
-0.0141219165465 -1.71075208154 0.468625105527
3.65853431563 -0.184412053356 1.40689600999
1.46341110083 0.0824189463803 -4.98614765939
0.462241620329 -2.79725896829 -1.19476710831
-0.0422516076026 -1.1042748976 -0.883300051931
-2.87795326926 -3.55597582666 4.2188692377
-0.348305750108 -0.598240458725 -1.33493468307
0.936953518154 -0.99643899152 -0.599387889614
-1.33482647013 -1.43836547648 -0.238984464486
0.711106280487 -2.75872093517 -1.84556751081
-1.62499520359 -1.3997697711 -0.45770526529
-1.62081980673 -1.12835111683 -0.380232486952
-4.03104202754 -0.128158085841 -5.36079982733
-0.00615145695436 -0.690091910242 -1.25281064664
-4.00970687975 -0.114118020457 -5.28896889169
-4.03699073111 -4.29392279446 -5.4021010518
0.465535060422 1.01615101518 4.02377788891
-2.67262022378 -1.87427924354 2.38714036243
3.46554378602 0.134718754526 -3.48698413983
0.685451312051 -0.195038410836 4.16648576875
-3.50518194412 0.099730253396 0.00881617155511
2.24934658446 0.832426773223 -3.2286889296
0.29449578771 -1.72432185736 -4.68640983438
0.491082925752 0.942522278357 3.92185372663
-1.64718785439 -1.83769044345 2.6719251345
1.86016348698 0.214914506046 -3.56116902645
-1.48930235037 -0.453744343568 -0.188463415064
-3.80880814356 -0.78058260037 0.298951450773
0.724111200301 -0.659128964817 1.06845932397
-1.34786609348 0.450364397792 -4.90342101149
-3.34874808892 -0.24637378585 0.441250306025
1.54535653475 -0.477953998731 -4.98383095688
0.675860599256 -0.882365439648 1.17508314327
-1.23141562522 0.39735757956 -2.32784207304
-4.31262242028 -0.320489480869 -4.90803383022
3.31561552679 -0.771716074424 -1.89133861685
3.36465567606 -4.07695078949 -3.07380013124
0.595634017319 -1.25276988071 -1.72643193485
1.07351586375 -2.17345143188 2.78713416735
2.91555315297 -2.31626009601 -3.08023073454
2.10091614591 -2.11591655473 -3.13646838025
1.35721555534 -2.66660530089 2.80340338185
1.26720846899 -2.05232724769 1.61761430854
-3.2998169705 -0.362070053846 -0.0112847549908
2.76139521822 -0.708262816581 0.595304591349
-0.620156069738 1.10404456842 1.40521603195
1.83519846462 0.215552467473 -3.04475014209
3.95731108263 -2.64137435388 -2.65954885278
3.25136667788 -1.994940115 -0.865711465584
2.01351892288 -0.637211325741 -1.20135338611
12.9227873437 -5.95159646551 2.80537556733
9.36507610849 -2.12874848363 2.82918351218
-1.76990260043 -2.32807393147 -1.79036730713
2.76415710996 0.26442426953 4.29796162722
2.29328241076 0.308045030474 4.23048812847
-0.310752501743 -0.1549597274 -5.09896100713
-0.865786658139 0.0504284861643 -5.12544469131
1.72608157787 0.889487050256 3.91759294496
3.06402759154 0.76389524955 3.33197456551
1.38538464161 -0.172267778836 3.96260580583
-3.17476325201 -3.9678056588 1.5503451797
-2.22318261605 0.313727555116 -4.98828232934
4.12738458053 -3.32117773064 -2.17892445712
2.63527082358 0.299958288647 3.9450076671
4.07463698444 -3.23394446773 -2.23090370312
-2.22167454392 -1.27225417333 4.52513745366
-2.03366757435 -2.42056703866 3.62956178805
-3.30268221506 1.00134584655 0.320904700321
-1.29643207813 -0.377666481772 -0.389101380406
-0.0988958696252 -1.22390630771 -1.72444388057
-3.37452457807 0.960782475197 1.65740560755
0.677015014582 -0.410300841237 4.39829116354
-1.59369811171 -0.619834357944 -1.16547904395
0.0143981794754 -0.739826528696 -1.74225753137
-2.95553390194 -1.95098931183 1.21853097548
-1.22368481126 0.855774180053 -1.86152891396
-3.81917622288 0.296956977016 2.21379975108
1.15963759135 0.422358578241 -5.02915416634
1.58467760102 0.428059453527 -5.00288903395
1.61244064351 -1.79047093509 1.13670323405
0.629291845376 -0.638151856066 1.84236742681
-1.51111690306 -3.35582884866 0.0708002829776
-3.68872174015 -6.90083754032 3.86070226955
-0.502625600235 -0.756162767874 -1.40139661824
-0.633192317754 -2.4705908789 1.92791676729
0.27596980439 -0.759064421245 -1.40595200394
2.59999307976 0.265521453032 3.95159803844
-1.04668065414 -2.05490119835 2.21028494513
-3.84015284944 0.0709646954959 2.10831528249
3.27131747867 0.0083418410487 -4.86941160298
1.88894688081 0.190614247201 -4.9596242014
3.52210619824 -0.172004837246 -4.3430589994
3.6458632954 -0.989856045025 -1.53492080242
0.739511410768 -1.06756640619 -5.05998163122
3.13227025808 -1.65945408419 -2.90531544961
-0.275734142471 -1.06853665723 -5.01871148485
0.754984864159 -0.845068613419 -0.338275958347
0.061997559133 0.73641995015 -4.6445679821
3.46421263201 0.0270046154072 -3.59478122146
-1.07150566028 -0.132044375371 2.29997064182
3.43411378312 -0.308719548151 -3.14828109555
-1.12989797056 -4.55852842164 -1.34728961405
-1.57136094465 -0.3585711053 0.105986244446
-3.58645139654 0.792467747696 -4.45264963903
-3.03594424156 0.124083810959 3.47985749128
0.261067789247 -2.19816922973 -1.29594651619
1.53511320756 0.134760565718 -5.00410326038
0.597606738046 -0.669498530127 -5.08458826187
-3.76380918943 0.12056795423 3.35767808875
-4.18104062519 -0.368063005913 3.41345976561
1.82446360459 -0.0632209929565 -4.96708878764
0.195058535222 -0.743582900759 -0.51866097585
-4.03550724352 -0.142290241579 2.70334127569
-0.416306559385 -1.79214677149 -1.83846426943
2.80178289769 0.193432187921 3.95918430694
1.92788636544 -0.163205267132 4.17306348846
-1.57167380249 0.339208959718 0.0965352699415
2.64198810339 -0.00838481098056 4.31061177063
0.768046838517 -2.18774706405 4.40298518191
-2.24379182076 0.325631083614 -4.99526554982
-2.31127525882 -0.964828175269 2.14470359852
1.393157928 -0.314755563303 4.27467167715
3.40269519915 1.05076784154 4.16466810985
2.39481890035 0.412189173747 4.13492546271
3.37445557074 -0.290988832052 3.71271998021
0.715796774104 -0.238146911767 4.205589971
2.42341056074 0.205398411036 4.15792217898
1.14568407925 -0.357379153938 4.25899187445
3.46635425975 -0.925415652362 -1.58356995271
3.69158168382 -0.908336539092 3.37454456301
-0.114381561353 -0.252014314303 -1.7575352397
3.02465233061 -2.79681864615 4.78492042249
3.09422346132 -0.593934554066 -3.0346469909
-1.24886102894 0.34679937775 -2.3101782768
-0.213951714905 -5.05851539398 2.61672906226
-1.08946287739 -0.185879554193 1.91254062159
-4.51598359961 -4.2947327877 -4.74539860885
-1.24423875249 0.943463684805 -1.0511872052
0.134147184125 0.309469021954 2.92836543106
0.541235927028 1.13359170057 4.72599171696
3.09758766837 -0.333441929929 -3.04003015405
1.04717520971 0.620124889414 4.04815806049
0.823587165295 0.552755765103 -5.0307541
2.01468662372 -1.26736338211 3.4701871578
2.02684198517 -0.452285640325 -0.968222303592
1.12037432218 0.663668557095 4.05136670988
0.0172413363616 -0.66963664759 -1.7428365497
-0.379024155628 -0.237722165287 -1.75984562378
-3.51891784188 -0.459023095478 -0.212487362164
0.402428935372 -0.146087553056 3.23341328309
-3.72193958998 -0.0307049683538 -2.1561022138
-0.213955164048 -0.56555885909 -1.74998031048
1.56080600511 0.807837269796 5.31880764104
3.05113406378 -0.374961585155 -4.86057001283
-0.628282160924 -0.40652694372 -5.02525271262
0.419844132849 -0.975588001034 -0.754346722733
5.25440187604 -4.38574650983 -8.55014941128
0.82398545516 -5.28080928562 -1.40962797777
1.90929933425 -0.45427859798 -4.97364178832
1.85757703076 -0.231540401183 -4.99937843577
2.79081847856 -0.336067787349 -3.0356234293
2.16916316376 -0.842799591676 -4.95525602164
-1.80999520799 0.726728413794 -5.0889624745
3.09785890092 -0.262702674032 -4.86810757948
3.27034974534 -0.00177753721299 -4.86355459314
0.221692349964 -1.95174773509 -5.01543207881
-3.69481379266 0.832274470281 -4.51798021415
-0.914423884446 -2.23357838905 -4.99411748436
-0.274901193345 -0.320887678035 -1.75798447144
-0.114014743748 -0.153187650106 -1.76021566569
0.780329483535 -2.71110895016 -0.871082930382
0.693163885018 -8.81157568409 -9.16478070896
4.808850754 -2.37064264758 -2.007937985
3.52885034465 -0.320264691957 -4.3916945725
3.08041921375 0.41060067329 -4.81058364635
1.75923620856 0.19617662331 4.03367181012
1.83294545394 -0.151460107663 4.37822382621
3.52029375766 -0.338278503609 2.79818455845
3.15639816039 0.865539883946 3.31645800422
2.62331340239 -0.447536079719 3.90037213637
-0.481329934194 -2.71035242215 -1.77566125181
-1.67711029214 -2.88418728049 -1.86308843555
0.122763405471 -0.77996042285 1.03774647538
-3.33985813718 -0.555340902566 -0.176165631397
-3.32699504693 -0.554859226714 -0.276483983457
-1.4481484001 -0.88653938485 -0.766427744044
0.0812031495241 -0.560045174136 -5.08628303425
-1.45431353792 -0.783106554374 -0.690654507146
-2.05429661459 0.925277756311 1.51590999685
-1.7106460168 -0.8668423902 -1.06677475564
-1.72537054895 -0.732364118322 -0.958160182001
-1.44116854502 -3.77666387496 -4.77768582236
-1.67126560169 -0.101506836823 -0.886009863222
-2.55569324404 -1.29212356766 4.13046732458
-1.52630857964 -0.407922916257 -1.33875319328
0.848500634426 -1.51632986898 -1.92395767378
3.76420632543 -1.43275932796 -1.45441285601
-0.41955031132 -2.34545397703 -1.48188692641
-1.8002255025 -0.0721877724349 -0.409521119849
3.84871553539 -1.67574791652 -4.05608763922
-2.20461962146 -0.389369177277 2.3053578597
4.16273755788 -1.04996276013 3.98618287522
-3.43919310538 -0.331749760434 3.27633910086
2.27623816401 0.25478291667 4.16531711913
2.29061287161 0.864933051752 -0.820562028123
-3.68721357021 0.701205505583 -1.8515692776
-2.81975502544 -3.15594373506 -5.08459997561
2.47812496551 -0.67731407285 -2.56896947861
-1.21936623636 -2.98465782829 -1.59031377807
2.0015611719 0.712055206525 4.27174719363
2.47358750128 0.274812211385 4.34208357525
0.0365236959307 -0.110199246511 2.49245565765
0.755196107192 -0.657725244942 1.08669204908
-3.48264411234 -0.0756335959201 -4.40252580465
2.26522611103 -0.564533704218 -3.05183790706
3.6435643657 -0.00465283307915 -4.62301157831
0.680042452349 -0.652696749496 0.535811038099
-3.50735704725 0.200074075717 1.93799484671
-1.6599592497 -0.227676441311 4.62334449487
-1.64922916565 -0.110666838135 4.61972490769
3.56141615022 -3.39427260035 -3.88219422462
3.53173293679 -2.85097572234 -4.76502555886
-0.317725444684 -1.77232424342 -1.89790099771
3.26270132896 -0.904614634705 -3.32719930043
2.3108425735 -0.799760182234 -1.2785614992
-3.89438399074 -3.88227278797 2.83849719991
0.751573066817 -2.24169338508 1.57998124845
2.8609163261 -0.0959352822433 -3.03830705923
-1.10735446566 -0.261844306097 2.2595324037
3.65500969614 -0.25058594741 0.433834052968
3.62322496783 -0.374249670491 0.322129505636
1.94647709964 -0.208474981402 -4.95476575808
0.424236324559 -0.856562398852 -0.36270683285
3.59009397683 -1.33417701482 -4.43374977034
2.53954301556 -2.31951983309 -4.21470852176
-1.64952509664 0.637434722611 -0.758079199239
0.0713388934227 -1.53769419939 1.62502875983
2.55097021726 0.174053366161 -3.28493929938
0.0754063732996 -0.90737249922 1.18396068589
-1.78285698647 -1.84507999498 4.14558069653
0.0644169961757 -2.04062913889 1.21231478822
-3.72780817798 0.73604385584 -2.43640956734
-0.376180441538 -0.328123581211 -1.76061367082
-3.46981359214 0.369963429592 1.54539869685
-0.524125164849 -0.804048281931 -1.4255673392
-0.349031967434 0.983117478389 4.70150687379
1.82088380921 0.775815318031 -3.06994449767
0.547240262167 -0.971991815559 -0.593828315997
-3.52595889275 0.299113691042 1.52484912868
3.58438260644 -0.698730351466 1.48586470682
-1.41172948304 -1.03782452842 0.0601363325585
-1.53915908885 -0.835288856401 -0.803139843457
1.5319787821 -0.238735098693 4.27443524548
3.06164223548 0.400964507501 -4.82107654915
0.474677630862 -0.899392137701 -4.76523047975
-1.30018858559 -1.06126628934 2.03465024734
-1.57099033938 -0.446415077747 -0.240087325508
-1.73425234788 -2.56137058152 4.45377736844
-3.33586101826 -3.58734274833 2.0317903547
-3.32240651598 -5.05872778827 2.08047221827
-2.90899268493 -4.23282790784 2.69770250206
-1.57515277808 0.351124798787 0.146591204106
-1.01347506813 -1.59290709096 2.94766671884
-3.67769875229 0.641555446992 2.00954561285
3.4449369451 -0.921395549277 1.31450780202
1.20565349266 -5.25407205293 -0.401452583109
-1.94781532639 -1.15820906214 3.96674442124
0.468220574108 -2.35134543952 -1.2251616837
-1.72743143449 -0.0750593911017 -5.25609097892
-3.7070715123 -0.701921152351 1.37625064115
-1.65424127117 -0.150865351892 2.00415301851
-1.77456605183 -2.94735351293 -3.97343389048
1.88288122139 -0.0258219059648 -2.94567846152
-3.51525666999 0.0361142356324 3.47813595673
-1.41647788639 -0.8274631572 -0.968925218825
-1.41279975376 -0.82027232265 -1.01599669587
-2.19315650298 -1.79162246735 1.30163003425
-3.60949608979 -2.0940888221 1.31483173248
-1.20890571119 1.41663419056 -0.00236908778195
-3.51088408158 -1.96704844806 0.35815837873
0.905958765078 -0.101060466466 4.20337548637
-3.67963400848 -0.448528409112 1.48853836225
-2.81529204847 -0.471629467053 2.23299614079
0.222953767296 -1.78376675494 4.06476295364
-3.09524947012 0.682058951161 -1.33138714164
2.3684446532 0.00846895142674 -3.04508473807
0.880468003892 -3.48700048986 0.452492218836
-3.41548836121 -0.354529716498 2.72439248571
-0.652483004375 -0.488881718789 4.72153063723
1.46515748841 -0.129990658245 -4.96492584456
-0.315156104857 -2.34347672211 2.02815616344
1.66236523049 0.716363630903 -1.62715558989
-3.32716775686 0.770034919923 2.70505056459
-1.42178046905 -0.340704604614 -0.476772562604
0.995245479808 0.293856504746 -5.01993828843
0.786548725016 -1.55908873318 -0.0375158769285
0.676035155326 -0.228733202929 2.29017539554
0.0184703092611 -0.51224972204 0.310091100275
-0.00504681135827 -0.629616801141 -5.01493452309
-1.26433104085 -0.750372633327 1.82449659956
-4.26172561322 -2.87505404098 -0.628115367749
0.0703976693934 -0.91791303852 -1.22384629218
3.05630778704 -3.95067087818 -4.89194999536
1.38259812465 -0.134354620362 3.95677380132
-1.4491041952 -0.281919445866 -0.248265988533
0.337998137485 -1.805138861 2.11812272991
-3.27985942027 0.0134787094867 3.7856822283
-0.372195022244 -0.19595547385 -1.87926389541
-1.49412910071 -0.670983110629 -0.262331324979
-1.47771216693 -2.03982563223 -1.10881233727
0.680147403576 -1.17763568119 1.66796236428
-4.0505802418 0.742097747302 -1.09262994317
-0.971222047805 -0.450267472191 2.35926121473
-0.978075197191 -0.564149957202 2.2419322572
-0.987016768215 -0.58134937299 2.09803421059
2.59526818146 0.87090802327 1.18818005898
-2.91192518645 -0.0480048522396 -4.7893699523
0.797845485211 -1.09856527291 -4.38405161405
0.540124406592 -6.46311281112 -6.45414374985
1.10235869368 -0.60993590728 -5.03554310849
2.52485040326 -1.45156380746 -0.283133218264
-2.86794103866 -1.75946566793 1.06668439307
2.08786865874 -0.740541847015 -4.97849889165
-0.972835897487 0.62175879619 2.85286731517
-1.72184632925 -0.732425162095 -0.893356871853
0.224790910635 -0.632630808165 0.0388952034772
-3.53495575257 -0.330535197184 -0.45623809768
-3.98861509369 -5.73361725776 1.86174463967
-3.61022558685 -1.95542396933 1.28495927758
-3.72780522957 1.16470818481 0.660785408927
0.121660818163 -1.00552273841 -1.01778336113
0.698540592423 -0.646086550113 -1.04012167175
3.58489793031 -1.44387724484 -1.36450597666
-3.13736051629 -1.12888275718 3.96715975915
0.299084968587 -2.27217933872 4.38805975282
0.903190268282 -0.10092964306 4.22080283151
-1.68980312873 -0.68791862785 -1.24309933761
