#.PCD v.7 - Point Cloud Data file format
VERSION .7
FIELDS x y z
SIZE 4 4 4
TYPE F F F
COUNT 1 1 1
WIDTH 1021
HEIGHT 1
VIEWPOINT 0 0 0 1 0 0 0
POINTS 1021
DATA ascii
-0.0693343994981 -0.133101886791 0.747955605418
-0.885668116898 -0.775753074559 0.888649189429
-0.222560932152 0.143544103541 0.418067603351
-0.306941174011 -1.08763109537 0.601945632534
-0.223197134288 -0.0990157152009 0.623534613058
-0.42654809555 0.0153358567006 -0.503648267362
-0.888745057837 0.0427249557429 -0.518133276538
-0.765390847523 0.283443359923 -0.0793340660118
-0.798166803207 0.0304690107129 0.151256337345
-1.26618143274 0.130531933892 0.286208225566
-0.945954409983 -0.10378537546 -0.43681505138
-0.652956127816 -0.063295219975 0.354196471589
-0.225405865824 -0.0869263134428 -0.0840238018897
-0.247934274014 0.200672779244 0.953479162348
-0.844545972855 0.0582637472088 -0.508522574803
0.18657026155 0.111730828373 0.219664765091
-0.144874181147 0.0202654200807 -0.0838932390307
-0.0808570973449 -0.141645162282 -0.234247351098
0.167467780851 0.0146455319276 -0.115205900426
-0.309266888979 -0.28304244145 -0.0325626971496
0.167740711227 0.117594337312 0.0670904595476
-0.293310624208 -0.0280837371741 -0.341919535028
-1.03198344974 0.635374691655 -2.90966498026
-2.21101169462 1.56038456288 0.675213066962
-1.80149518748 1.7324587074 0.0343831577475
-1.05074017307 -1.4275756796 -0.271819467753
-0.239088937693 -0.0725385489774 0.379116354756
-3.27327848144 -2.20993339012 -0.301823846293
-0.264376838764 0.0118073689766 1.00085143126
-0.599322830667 -0.00627938615963 0.706860367905
-1.28099646758 -0.0658686552611 0.485415659862
-0.436856987101 0.0476190226202 0.66367837507
-0.816739198647 -0.0230972997502 0.535452991524
-0.451646058138 -0.0538596355425 0.665385544175
-0.46710601994 0.0661851500956 0.678971537819
-0.822080795923 -0.0201092063615 0.47853956788
-0.819293159698 -0.141731026015 0.559832325388
-1.01614039325 -0.479163744254 1.04384186339
-0.614211302053 -0.00201803908896 0.973072515885
-1.28344479521 0.0912341376496 0.294463958765
-1.29740196994 0.036044448636 0.314104055807
-0.247966414007 -0.411795210146 0.541707023185
-0.299251650034 0.0738611015256 0.260939658765
-0.286729142379 0.0906980957105 0.343660403937
-0.411857478708 -0.0446895926024 -0.493156043046
-0.0619959694062 0.114667807159 0.744419832387
0.0329662048265 0.114846994585 0.62194125418
-0.160060013436 0.213027832217 0.853506516177
-0.218208240401 0.141520190858 0.465360605826
-0.234648534823 0.0116452224528 0.425586835155
-0.477726103277 0.0544124043868 0.679095935772
0.132513483079 -0.12791466098 -0.286147630962
-0.241369004104 0.20707629826 1.06679956569
-0.257532336978 0.106119594702 0.510388422068
0.109775420916 -0.0958205566144 -0.152116115695
-1.27201112835 0.186318255613 0.302921203809
-0.0237264418547 -0.0773535689449 -0.238885737196
-0.947208560116 -0.124864485016 -0.45339106147
-1.28097644497 0.163119964723 -0.0122567523492
-0.933095644014 -0.126146843314 -0.438884173587
-0.904178530359 -0.34313029736 0.812300709703
-0.246185104937 0.003047581773 0.925606863437
-1.07551071447 -0.0528194802383 0.761168390929
1.46990319111 -0.925862843788 -0.528609977402
-0.983201208002 -0.157742552669 0.810024976653
-0.510314084059 0.0649757713521 0.91793781883
-0.420489655896 -0.114484900786 0.940191408192
-0.619824708574 -0.0372551313225 0.90480800282
-0.438779695126 0.0604199397768 0.598269841526
-0.298301009515 0.114554621682 0.919121213302
-0.550712218547 -0.000326975211964 0.690516985147
-0.215340365957 0.198858087806 0.841741313505
-0.66810727881 -0.742222865031 0.88188017028
-0.390484144594 -0.0770704622384 -0.37655705293
-0.749969473639 0.149978954778 0.901762677153
-0.652564125553 -0.0717928378524 0.936088626162
-0.629265942759 0.212039004486 0.924016075465
-0.642928802529 -0.0365728013012 0.354901650701
-0.320181199195 0.200008123039 0.113715169077
-0.626677474296 -0.679975644718 -2.01041779973
1.93812124509 -1.56329835286 1.80242430702
0.170056904687 0.114899682338 0.430576141685
-1.02540447948 -0.976145305585 -3.26991409705
-1.37009768182 -1.51700798039 -0.259738111525
-0.158293028747 -1.42232801975 -1.37472396878
-0.735352045197 -0.0821217612437 0.906711831706
-0.443826480019 0.0677321765839 0.596506332886
-0.437456667895 0.141543191155 0.633318542221
0.103900251435 -0.108201304573 -0.142467827746
-0.454453536617 -0.119904040374 0.664877392157
-0.544285880233 0.0186492691765 0.916805585373
-0.221516999532 -0.076214878118 0.872353842627
-0.148351944574 0.0623999189043 0.271082192401
-1.2360032298 0.0911423019917 -0.160326619212
0.139666359191 -0.0420205752311 0.321043334905
-0.299452865038 -0.0927378761305 -0.0116923484422
0.119312812336 -0.688584791257 -0.111879191512
0.145932324854 -0.0119313080108 0.472661689501
0.218771866938 -0.123368629709 0.434988989299
0.163800407069 0.118798582502 0.346932072986
-0.212081926583 0.150812125306 0.794125698487
-0.693292413951 -0.0693340598681 -0.527637121987
-0.240492174405 0.0758431994252 0.407255410961
-0.257558669589 -0.0685899854369 0.513146975695
-0.220303484732 -0.157086247278 0.440795898104
-0.253460231932 -0.0189833731713 0.501656175124
-0.226242164397 -0.149340391884 -0.409761103438
-0.0129193034078 -0.00111509970574 -0.231098431857
-0.306760672382 -0.0722670132583 -0.352604385588
-0.726966278664 0.275382993754 0.243566046873
2.76652778106 -2.23460768815 3.24595182685
-1.24608162465 0.233192754764 0.292215349238
-0.764229199851 0.277511645622 -0.079784232917
-1.01268429088 -0.522438498838 1.11426112498
-1.27177661567 0.165621736909 0.292432996584
-0.619607490208 0.239475535644 0.96891885531
-0.288335957451 0.112041575282 -0.399203049689
-1.01238820816 -0.0232439320868 0.843966977048
-1.01018713614 -0.120873355922 0.941378852382
-0.85825583089 -0.457482282634 0.48135621832
-1.19295199715 0.127497696357 0.431348051363
-0.906367813116 0.10603477488 0.930912315876
-1.06196681243 0.0946564899717 0.712079971648
-0.337266911998 0.0624170608726 0.232928661139
-0.606660983459 -0.0774221544793 0.621566164121
-0.233081965315 -0.0828744920674 0.482708471721
-0.376232411594 -0.361545136177 0.596383148608
0.0943754562039 -0.486502264878 -0.16007359158
-0.292357404888 0.0827009050125 -0.413987882873
-0.559518512576 0.106645476528 -0.574229169922
-1.23080142283 -0.113091062692 0.454432861238
-0.669374027404 -1.53792246792 -2.06358773401
-1.29864509503 0.0584534094334 0.305836724184
-0.160534652383 -0.0792323206476 0.850443712388
0.179984601233 -0.0225142429897 0.232317162356
0.129075580683 0.11281654914 0.466232697326
-0.236778797922 0.0633197881477 0.428582076604
-0.0391720508939 -0.0176083755222 0.728511723651
-0.338671520374 -0.00149478526886 -0.0316142943626
-0.229087260217 0.0590850541004 0.438134429471
0.180059198607 0.0960542472729 0.233561524623
-0.410080149605 0.0182052679211 -0.486395049107
-0.277557664401 -0.152709917075 0.518640549417
0.132705136788 0.253728812287 0.172969855147
-0.659238949713 0.0596041494732 0.905758088088
-0.655393415386 0.10008647522 0.906167377482
-0.603236066947 0.0988652404337 0.910785940856
-0.175831376706 0.216727629098 0.766353216985
-0.655967810619 -0.387712268738 0.897707408956
-1.20060707655 0.147916279094 -0.170161221341
-0.266924685454 0.0545029810546 0.516932447147
-0.290646813323 -0.147233190924 0.198854607726
0.0643995343178 -0.00756338077165 0.534347322578
0.130444174745 0.0793574910717 0.506921449471
-0.123274025359 -0.120236687504 0.828327717309
-0.490340858489 0.0706541890272 0.982100560335
-0.240568627704 0.00167289050504 0.397669419291
-0.62696776203 -0.0937793813115 0.973786142463
-0.327145028437 0.0139916715085 0.317037376355
-0.537558264787 -0.150233551668 0.986232109594
-0.300552567844 0.13306614394 0.975422855626
-0.695455363697 0.138882419324 0.902074978242
-0.81604888903 -0.0196115461797 0.53063308338
-0.285518117488 0.134773488964 0.957840817638
-0.340546362882 0.162692245723 0.118555561927
-0.825599722938 -0.136996258725 0.520427493889
-0.4279445798 0.0657563016711 0.649704364441
-0.432281759111 0.0252922970907 0.67419519068
-0.651249791581 -0.192625111498 0.648440460891
-0.227346760653 0.136246135965 0.376368174182
-0.295018289122 0.0231442525623 -0.0383570169996
-1.0025022865 0.0320238502527 0.854373513326
-0.784163474558 -0.233720977166 0.246455844082
-0.543444752311 -0.274179444164 0.989220428118
-0.504527743337 0.0799081551299 0.98185399449
-0.55532084135 0.0846135018546 0.977135290224
-0.537719210341 0.146181579639 0.978013674733
-0.557842258135 0.0813092634262 0.977373607844
-0.56070690182 -0.0967175550299 0.981512961869
0.240117518487 0.173930862587 0.382852158663
-0.425738446308 -0.349430004767 0.961196111715
-0.446558599812 -0.391167964397 0.933919190112
-0.330392918543 0.13747704074 -0.0586473375587
-0.306806462681 0.0698281848059 0.179817436048
-0.324712084662 0.198012397606 0.31514004528
-0.872097838125 -0.102402134955 -0.507317990191
0.212585201792 -0.0281807353345 0.377145717893
0.0291903046521 -0.0949426598515 0.63392608452
-0.683734270628 -0.0523263027343 -0.173929398102
-1.09864794659 -0.0590445838405 -0.257750362963
-0.984825055971 -0.014382688381 -0.47976680135
-0.958870945877 -0.136268831538 -0.416253276669
-0.154343810564 -0.077157638472 -0.327820306938
-0.455156912856 0.0328565211869 -0.153467264644
3.09678655266 -2.48785240678 3.7752473268
-0.313879612039 0.132030822862 0.0557932936241
-0.476090328172 -0.388505749718 1.06100599902
0.144754651485 0.101276187318 -0.183712959179
-0.534242886036 0.153999545378 0.919541398216
-0.496077519226 0.0362674483303 0.927069500053
-1.11277744554 0.113504855122 0.41235638081
-0.434006935787 0.135216847235 -0.493638926644
-1.04531692818 -0.852506279864 0.995093830811
-0.431375162467 0.0446315551036 -0.506838712237
-0.266142233877 0.00955915445744 0.42935835627
-0.26524047696 -0.102192266829 0.518862860558
-0.65048600473 -0.0903531930238 0.970111094088
-0.881740956046 -0.375324026818 -0.0796879824754
-0.16379102139 -0.0995101535016 -0.326508167758
-0.943338971999 0.0216772975377 -0.421849406068
-0.941586871328 0.0794073866602 -0.419703127082
-0.0241452269272 0.0991456677411 0.513622089788
-0.229470338186 0.133688843498 0.398911027125
-0.857134958691 0.109435143819 -0.506396283725
0.486917257939 -0.331637781963 -1.98049103025
0.0557381775268 -0.096975766281 0.504375577288
0.16512540264 -0.0319604404042 -0.0898421552342
-0.0691306394065 -0.00906174465274 0.143162123078
-0.371998379802 0.112852108057 -0.494469462179
0.174979441789 -0.0355021467267 -0.0839999843615
0.231098894263 0.0254602117757 0.377408112644
-0.285244867873 0.0268391629559 -0.104632960242
-0.166436156771 -0.129771163197 -0.314878537855
-0.327502113889 0.138430486776 -0.0118324968958
-1.29280964489 -0.00481593747798 0.289485015687
0.0738525626688 0.0515002658864 0.00773157534013
-0.559627486573 -0.0847656460271 0.982115511485
-0.337079222258 -0.0680859640387 0.939030490101
-0.734700387152 -0.0144203231236 -0.542344316517
-1.30551667516 -0.0272752240006 0.316560342278
-0.520362411946 0.0531654413776 0.915881240256
-1.08303081076 -0.00593620484762 0.766943913292
-0.979156533546 0.0822359708252 0.502868546795
-0.615685776595 -0.0640165827729 0.975024937913
-0.922425542072 0.0545060479481 0.471537477427
-0.775317937001 -0.238482510816 0.825540838779
-0.284915644374 0.00703411126444 0.386413376905
0.165723419806 0.119452999321 0.441770951355
-0.939031996934 0.0210404998316 -0.4295915397
-0.352538320536 0.121424032714 0.123012577714
-0.300821217715 0.271566059394 0.0849441059401
-0.37539604346 0.0636414915094 0.124325265425
-0.254815624721 0.262769641995 0.197889064072
-0.723737968677 -0.0296494346208 -0.558321373943
-1.00625095251 0.150885952918 0.92612949215
0.171200227595 0.136666374652 0.628176590667
-0.0561233784171 -0.00679743173136 0.663497584467
0.115069651292 -0.106422970322 -0.180691223101
0.0820523024278 -0.0849026163535 -0.178037602632
0.188075932249 0.111998055791 0.220660698575
-0.234844970599 0.0193614770047 0.0945983060171
-0.329568316307 0.0091237932422 0.232662042066
-0.306722160041 0.0617369371196 0.388979201418
0.0428093486318 0.238744289539 0.514752660189
-1.30176042182 0.0463718333942 -0.017069893013
-0.315704374723 -0.0595526184393 0.989551438448
-0.263087419251 0.0615957671176 0.501362580793
-0.340428241322 -0.219665511606 -0.067455274614
-1.22517941077 -0.0106656523884 0.426642270345
-1.06308947927 0.309079546796 0.552065297523
-1.11774028971 0.12437312661 0.573339511955
-0.82386727659 -0.0791797555309 0.489797748936
-1.06321809152 0.0999299072205 0.711591797432
-0.826439888251 -0.134895489009 0.50294935622
-3.26122735616 0.0288822557409 -0.944480472472
-3.67332031863 1.38475455169 -0.937291386647
-3.30765959323 0.304300156587 -0.682081629501
-3.30643195878 0.362986852897 -0.653654300205
-1.36733469425 -0.175993735407 0.296979624615
-0.455349104776 -0.0466301852624 0.675908111491
-0.592159050642 0.046130749371 0.909567852931
-0.499366113978 0.101956474226 0.682248824595
-1.22051221857 0.0912448687592 0.412060010734
-0.481241018544 0.0501094022722 0.984367388185
-0.549559515065 0.0788641494802 0.977398040922
-0.59615090078 0.12415538425 0.973298987998
-0.475799766905 0.128226214603 0.982121314544
-0.199280725443 0.144575780859 0.941491875381
-0.909443835219 0.207351210984 -0.430988396992
-0.681766256428 0.139394193854 -0.517835518205
-0.862997760309 0.0452977617199 -0.514955903147
-0.243995509592 -0.0871793948617 0.428956700265
0.19104868054 0.0814515736483 0.226813622223
-0.0703204658019 -0.0103006661206 0.125535382352
0.097250278144 0.0433827203198 -0.130810433268
-0.426081757933 -0.614516593371 -0.014679131218
-0.153329639163 -0.00575812692984 0.857827768321
-0.341091763058 -0.0971378680888 -0.0466999458896
0.145598086269 0.0861099929536 -0.114192586896
-0.486125609295 -0.140465210981 0.98244486292
-0.682360922931 0.0838415755708 0.948518742138
-0.431618862035 0.062022652851 -0.500873918206
-0.247911050722 -0.0201180390572 0.4927398997
-1.2605229053 0.165036309252 0.280145212405
-0.463426089716 -0.0240155599577 0.677938610097
-0.462526181609 -0.0353169663024 0.67680739859
-0.449404165594 -0.0471955995621 0.675547955906
-0.455482632209 -0.0453583446983 0.676042753237
-0.468228164374 0.0988839981439 0.678282926189
-0.222961891119 0.126582243204 0.873663636406
-0.331217908342 0.202234926486 0.974541960041
-0.210940774001 -0.0654858688289 0.803107545894
-0.700039666857 -0.0614347359926 0.892517209802
-0.433040726957 0.0516047664695 0.630413806312
-0.795682342215 -0.0674549171416 0.597336586082
-0.8945634392 -0.0344152257861 -0.501965068004
-0.677156743934 0.0845419618812 0.612085606173
-0.561679320294 0.035398890625 0.915049985313
0.0560091810956 -0.00873686004504 0.55189921469
-0.262559648776 -0.293690153213 1.00329764131
-0.312506741984 -0.00473209660981 0.978979865526
-0.146482894599 0.136390690543 0.800071204039
0.19321432523 0.113112355222 0.147925959788
-0.303224145184 0.018337830962 -0.112917862034
-0.20920273832 0.081381584083 -0.354928692918
-0.321721053564 0.0169133670588 -0.0848941192328
-0.875811505826 0.23023546685 -0.478642099808
-1.11702327913 0.238949244024 0.575415365798
-0.25454699509 0.11889605265 0.514554633939
0.0446129129029 0.0388309313764 0.0561529499971
-0.258786492317 0.00705371732013 0.516698467241
0.0906060619572 -0.00767094632703 0.201963996645
0.0540907569567 0.140765109 0.0317496241553
-0.605456723791 -0.10362567633 0.912118634749
-0.434439907068 0.184548252022 0.667649950927
-0.88589356647 0.173646702078 0.807617917571
-1.00475370255 0.179951241805 0.551137066894
-1.2982317448 -0.176737481198 0.485274293293
-0.549153961668 0.0571055045685 0.689105365831
-1.22032944546 0.112478369279 0.407343018458
-0.870960635558 -0.385588389703 0.408443234826
-0.80842970382 -0.155631880744 0.870694537024
-0.666496455231 0.0149436091019 0.60949604955
-0.18551612735 -0.0790417694869 0.781409297831
-0.708944907606 0.219182579789 0.607541470043
-0.45902279682 -0.0372123336504 0.676659800767
-0.461325596697 -0.0533433802588 0.676079872048
-0.784535900536 -0.202546892629 0.0242185688792
-1.04803491092 0.177467937762 0.743853981704
-1.06209044401 0.0430271725936 0.758119093849
0.1872890453 -0.0521885058974 0.217243925888
0.146025407658 0.10581198534 0.0596202150478
-1.12844880938 0.123662728363 0.572510171318
-0.117698937963 0.160499793789 0.699388189409
-1.12386237674 0.125970249443 0.56958900156
-0.966290328088 -0.386189821308 0.890549221954
-0.0154125346408 0.185725480581 -0.224744744599
0.177958885502 -0.056763102157 0.076249873449
-0.319322941243 -0.290358501203 0.0523544128301
-0.158723481327 -0.109638411986 -0.0689842584856
0.075750253091 0.179617604311 0.650619780561
-0.293590757711 0.00819509179826 -0.0427643937328
-0.253216529092 -0.0163534416716 0.535545146768
-0.232377310915 0.00271710878236 0.376135429546
-0.289327410058 0.0650720579733 -0.0278183654729
-0.285626652076 0.0653557113517 -0.0152274663307
0.0134657016454 0.0133685442893 -0.0511717744515
0.0231270992595 0.0134719055489 0.0311338466982
-0.157119758054 -0.0531717820505 -0.327072459547
-0.300617117337 0.00381694616591 -0.082423772687
-0.579664323476 -0.446542149747 0.928706377321
-0.418494797988 -0.113711637766 0.970363009368
0.160675950925 0.108956348875 0.436974871922
0.117898197393 0.0845658435489 0.495700042226
0.193587108178 0.0411799603593 0.386330447356
0.0231261413329 -0.0293866913672 0.443874297812
0.708100005044 1.66305807375 2.28859806111
-0.433796699933 0.122736510584 -0.694078746048
0.56593654215 1.63948672484 2.04091812266
0.103301704184 0.0710161805503 -0.163475956579
0.661555896607 1.72333621675 1.91375983575
0.793186058074 1.39339493876 2.85880368252
-0.990688489509 0.250240937203 -0.315691117699
-0.278823978179 -0.120542641324 0.500749589959
-0.402681411672 0.177695541154 0.950746875965
0.136116587202 0.0453048924646 0.290256981849
0.125858514375 0.0615706670004 -0.150024780902
-3.3368986279 -0.266253686492 -0.519097519848
-0.395094954826 0.087518668794 -0.210240738166
-1.38855057601 -1.53067577686 -4.60561750157
-2.53359304965 -1.72249754199 0.0371521937465
-3.35332646056 -0.32469195253 -0.326661462201
-1.81943334943 -0.36432439398 -1.62624001553
-0.504668058903 -0.628185446207 -1.62507892408
-0.65366900237 0.156673570701 0.949671273168
-0.0749859118671 -0.108905424312 0.742853946295
-0.57183275122 -0.00862833467269 0.946562490579
-1.34671042821 -0.0447665112576 0.0204684804227
-0.773888817423 0.120731419625 -0.137087593083
-0.714222728367 0.205301273367 -0.54656391264
-0.303266259591 0.0170811629631 -0.0304730986286
-0.221193768636 0.146833626848 0.451198036121
-0.147424968055 -0.0131002705453 -0.322971171047
-0.291184791397 0.0143639872629 -0.0123924744325
-0.689573253501 0.680194797645 0.0666251163649
-0.299875988411 0.0105743552989 0.276028026527
1.12255011902 1.73082825305 1.52021657114
-0.358402815426 -0.124930220793 -0.0723152239099
-0.255610648642 0.120755377642 0.488692230107
-0.329858019223 -0.0957717995048 0.0373708698953
-0.322287284178 6.35096927023e-05 0.0381068513346
-0.254470397108 -0.0664972074137 0.483012613758
-0.494141488469 -0.0638253854171 0.939308314387
-0.0298967443962 -0.0165149085474 0.659902604145
-1.04784664005 -0.0564240654965 0.861365139537
-1.21957142342 0.0251459948905 0.454366799856
0.0236195732756 0.0336943443613 0.392631303853
-0.71579340084 -0.0726407161187 -0.159388107686
-0.0810091710942 0.0274133514336 0.0174244330703
0.100763863429 -0.0109342024878 0.18838558825
-0.254913249034 0.054723864174 0.485967635506
-0.569237190514 0.213191643879 0.965261899944
-0.820227215741 -0.0801213166074 0.53122297314
-0.823444131684 -0.135883077625 0.536331019624
-0.543938475243 0.0444709955797 0.917510763741
-0.597292411012 -0.00308151079438 0.90980471199
-0.541459481394 0.0618785979479 0.690261829403
-0.466178834067 0.00440601635859 0.678186095491
-1.01533821565 -0.011779633492 0.792771903538
-0.540082846777 0.0326561649819 0.980048331631
-0.280995788952 -0.094164303253 0.995522942815
-1.30529845673 0.0213049055039 0.325260622822
-0.170177072578 0.0144411295661 -0.330458982075
0.12322009325 0.0536835788017 -0.147400649462
-0.3279570031 -0.144581087393 0.182452657872
-0.0441652632879 0.00381794761374 0.61754158188
4.2413242714 -3.62370790902 3.28568084463
2.72264073337 -2.69291585152 -2.93889054321
-0.331605911997 0.234040545077 0.121112328236
-1.12751201601 0.128090056504 0.567639475194
-0.340758226705 0.0703777110712 0.218411979843
0.167832354331 0.000612417044031 0.499445471199
0.150439879434 -0.101209038754 -0.108425141673
-0.894159121285 -0.119162733204 -0.520411983597
-0.3134499082 -1.15252130009 0.608757332574
-0.30515602673 -1.21106920702 0.613787951643
0.131843422971 -0.176157438777 -0.144983914617
0.117039732824 -0.0080553492439 -0.154584700329
-0.42735780515 -0.0698708638073 -0.498857347611
-0.0511979376108 -0.0608394263584 -0.251276455797
-0.691915030987 -0.0752907350418 -0.143654843005
-1.27081747451 0.112028919666 0.292051814523
0.137014498125 -0.0918934833155 -0.141541564454
-1.28173886944 -0.024888479336 0.301041159224
-1.33754897606 0.138178581819 0.144863589339
-0.679920470177 0.006150869704 0.61130249488
-1.36110876142 -0.0215423352152 0.15474129485
0.18380072697 0.162349189894 0.334578285798
-0.0347693374121 -0.155839701201 -0.240592156132
-0.006324099968 0.0733695819243 -0.230873084071
-0.219286900874 0.159601197141 0.463541037689
-0.227946947334 0.0645855435152 0.427015628494
-0.557208576287 -0.0632755535946 0.958736216901
0.137909200981 0.0246830168207 -0.0544781125362
-0.460469364744 -0.00513696718894 0.68002111142
-0.43179283486 0.0229219103012 0.673824865207
-0.592330661341 0.0393707119663 0.909928769774
-0.134915527207 0.0915434217157 0.764249308886
0.0808683850919 -0.0382153794309 0.764892326958
-0.32442121787 -0.00241918835479 0.0220779393264
0.305050950754 0.166348152628 0.684148641027
-0.274616051256 0.102060618531 -0.464271942601
-1.27852229726 0.145070349782 0.250207909498
-0.609157805828 0.209657834807 0.922970581255
-0.62521491144 0.570499825061 0.908742794385
-0.310017350878 -0.158254615044 -0.0342655836324
-0.318351171472 -0.158211713771 -0.094664472081
-0.303242917724 -0.0467633617212 -0.0994996848869
0.19556212144 -0.0525502806309 0.347049728493
-0.786095857119 -0.617539195897 1.08987837075
-0.76327069502 -0.069805688503 0.94146703953
-1.05848909129 0.0558298961901 0.761957719752
-0.0725511639723 1.66179626781 2.58666406585
0.0243110279593 -0.0851772564494 0.615168362436
-1.33869856438 0.100779246971 0.142531897108
0.126729617167 0.0536045576584 0.0198951540489
-0.818511150558 -0.918487751637 0.0243683548447
-2.06192054948 0.194729536055 0.244139850219
-0.298852226554 0.0704545433347 0.257243468709
-0.0668138647732 -0.00777438197832 0.0153875067912
-1.09472677796 -0.442805394995 -0.035210865148
-0.815313705384 -0.92023552893 0.10965265722
-1.07557696366 -0.0655647972793 0.757652080818
-0.248110193781 -0.149444316257 0.49719011884
-0.600303855515 -0.0936491096473 1.18298426741
-0.885791189425 -0.026079377647 -1.08342174086
0.223766067602 -0.011691613165 -0.0678875791374
-0.441349154349 0.240428875659 1.24684811649
-0.338054275829 0.0588207207948 0.234790043955
-0.258379407525 0.00563587203339 0.423657748514
0.157814701723 -0.0379123840107 0.183086372775
0.1495410082 0.104419433934 0.328747200459
-0.254592719293 0.0565770720183 0.420833377661
-0.348858435797 -0.436403243289 0.431078041814
-0.277309570473 -0.257319756752 0.419326050949
-0.233318515514 0.0611947281768 0.398898911398
-0.225348779996 0.0200114362467 0.466623188817
-0.216842895953 0.158815286324 0.478943133432
-0.0676563849732 -0.0208026154407 0.732429379012
-0.335617780134 0.0460236179768 0.129715843377
-0.541055805922 -0.0929308042567 0.682992769165
-1.40218618606 -0.0932342720571 0.0639899703545
-0.593479219028 -0.0365958736174 0.707754534181
-0.761741881978 0.0367080969613 0.234241924445
-0.792779119682 -0.0510528720907 -0.0852215913251
-0.273822812269 -0.0149054552506 -0.747569947246
-0.825933131886 -0.146607891786 0.519262122281
-1.15127099477 -0.106747234349 0.587950958096
-0.569242226594 0.054219932546 0.911891986866
0.119618796333 -0.0139798815276 0.161195742974
-0.587876584639 0.074332711099 0.693471204509
-0.760028333599 0.091917968462 0.960845791211
-0.0376476096773 0.0291465078102 -0.160096901952
-0.348995494099 -0.208688145702 0.124789911557
-0.161094687679 0.12444790625 -0.265266092702
-0.989483233945 -0.0390806117216 0.930936420096
-0.787952181858 0.018464937508 -0.0860899055197
-0.833265822464 -0.270255040823 0.520379177153
-0.819855344745 -0.0254713434923 0.502646438463
-0.443892886314 0.088647955432 0.932335262879
-0.27423457127 0.00662476400826 -0.402894302127
-0.492561991952 0.100001440323 0.922328884044
-0.335360000894 -0.014099793352 0.341867301524
-0.511282745659 0.0515177642732 0.923323600865
-0.272552102994 -0.141457692238 0.458327174679
-0.243899044112 0.00512070620139 0.973327474313
-0.278311251851 0.00667670706948 -0.406052906581
-0.28735742963 -0.367179927871 0.344631083419
-0.540012836871 0.214888737992 -0.577186527536
-3.94560032703 -0.787969686266 1.22187178806
-3.09232228602 -0.77439825924 0.961457458746
-2.03375336798 -1.54629434188 0.632674947114
-3.22253597486 -0.501356540235 0.972159680751
-2.4021256071 -1.44304359888 0.356139835051
-2.7538347725 -1.25195501553 0.0652476213751
-0.221852984707 0.00639202628543 0.876328501751
-2.74294711256 -1.25612739504 0.357941657346
-0.873560332172 0.0982389279333 0.731023107393
-1.20165688116 0.119645693908 0.428666675018
0.00235397480236 0.121359430161 -0.219048736497
-0.438972795655 0.0403610750867 0.986151720137
-0.432283181258 0.0168840867948 0.663253993991
-0.426548363117 -0.431463555628 1.01342098714
-1.06269181997 0.115071157733 0.707033703548
-0.595308984096 0.0507486677471 0.962329485896
-0.29610878453 0.149412706748 -0.114453543654
-0.289026488496 -0.374574991876 0.99100939739
-0.287620489833 0.144783384897 -0.0133418213296
-0.327872012138 0.0137646337888 0.940303981375
-0.255657290172 0.0563092129124 0.486860473148
-0.696709400984 0.0102962173777 0.896883454869
-0.468436706534 -0.0580349794401 0.677442174699
-0.158968938079 0.136494681856 0.863544301621
-0.453556794822 -0.0302157433251 0.676083664082
-0.324171867662 0.0160761544937 0.94784795393
-0.332911169065 -0.155390890325 0.953948727201
-0.346008854297 -0.157230711711 0.0630669669388
-0.303415600325 0.0122561072376 -0.111390739177
-0.324519517816 0.0536878877192 0.0458293321128
-1.1941502811 0.121669085565 0.436304230661
-0.332672659195 0.0382669840308 0.0607200613341
-1.0171377359 0.0990265414308 -0.475868457945
-0.33866230618 0.0580192101128 0.213822163717
-0.578380221239 -0.0310788579893 -0.155225721521
0.0695098493611 -0.00745646485715 0.604806594619
-0.259600381567 0.00384807402862 0.515407385105
-0.720485358641 0.116343553376 -0.539266384721
-3.34331674825 0.462692288809 0.486080221098
-0.689700587926 -0.055022856672 -0.16528622028
-0.276326438687 0.0813582040216 -0.401054922176
-0.437558458162 0.0546034107232 0.634811253711
1.50842202859 -1.24949937478 1.85060994039
-0.890175560156 0.0898222508219 -0.54390925443
-0.385019827312 -0.22168239015 0.661688972642
0.159851249333 0.112603840392 0.476628785151
-0.334204219666 0.0568161025245 0.212471256455
-1.02310501459 -0.00599793146609 -0.867490867897
-0.381075903718 -0.342748545259 -0.0806857297341
-0.754283575278 0.0552619828162 -0.958959868446
-0.26425118162 0.0757063624531 0.387308299407
-0.269516819881 0.0565201147271 0.3923456564
-0.694790281414 0.0925718733966 0.962035021007
-0.247111894841 -0.0689015184199 0.895657563492
-0.792513523531 0.0982809338543 0.949290486498
-0.785065992148 0.0514647741633 0.94974309828
-1.3074474735 -0.0354548589673 -0.0130283215646
-1.28411003049 -0.010682031207 0.296375978135
-0.82076629328 -0.558216150282 -0.0748107352545
-0.800842937994 0.0445085202798 0.146448177544
-0.653470847813 0.0524851227769 0.25609141715
-1.30304525843 0.00720033583894 -0.0258701184332
-0.489623370274 0.0701590441106 0.980576031638
0.315697347055 0.164681263085 -0.36284201551
0.0588922416253 0.0833754735508 0.121732198606
0.246730902913 0.155168339645 -0.360735821703
0.179131970313 0.0679363156181 -0.0960890630474
-0.0194744733304 -0.0120839591447 -0.23870542497
-0.437297086155 0.00237317056647 -0.140479894622
0.196181502434 0.135998594365 -0.331106447266
-0.16637905598 -0.0603396731498 -0.343769823881
-0.375115971443 -0.710159083026 0.111383053283
-0.138683267097 -0.065829274555 -0.304183319563
-0.75857233811 -0.0530887539261 0.950295856487
-0.871336976162 -0.472475797001 -0.0557661868646
-0.430127609609 0.0738362690898 -0.161732992729
0.316830599508 0.140361649342 0.266775395621
0.123236110918 0.192924156533 0.298395198688
-0.524057745147 -0.273120180672 0.930207073745
2.6624079388 0.384190664982 2.51772486005
2.40552647566 1.16862166291 2.31859327156
2.57519342642 -0.785868462314 2.37966135005
2.28296023384 -1.6446839157 0.16224596968
4.53952535393 6.46090397278 7.02519031778
-0.345131819046 -0.0924095128928 -0.0241384639764
0.114331135178 -0.0406221350502 -0.00840910595535
0.0569718118495 0.110861886324 0.52159038962
-0.222962107027 0.101362285593 0.871532719691
-0.604907711198 0.0453601651126 0.700067612107
-1.04705236767 -0.0621877656243 0.808497477514
-0.441303038296 0.0713661527938 0.610273489308
-0.708262884024 -0.0727898301134 0.896622882352
-0.776669138322 0.219681298365 0.00293933809385
0.0760346309312 -0.105123456645 0.681264567493
0.157741077152 0.107373026031 0.0785133119793
0.171496313061 -0.0428911191558 0.239100825654
-0.0683085321948 -0.0255146481266 0.731423072234
0.186823422283 0.225445685303 0.217377093995
-0.237806721133 0.118827347823 0.455177811755
-0.0819038944267 -0.148330044975 -0.241903536528
-0.241990942165 0.240876097936 0.412765365326
-0.347123958524 0.0515421226311 0.197846111395
-0.0293861050908 0.00400473616635 0.288628996754
0.200839599233 0.111025319935 0.383766003645
-0.148435169889 -0.0652740607032 -0.329889290682
-0.698764819878 0.0584175567023 -0.17936048061
-0.0127597991897 0.177327161875 -0.232625862905
-0.314251050538 -0.149280304314 -0.107902785615
-1.28408614597 0.0418324384343 0.293573265111
-0.263752433289 -0.01647213076 0.563721507157
-1.17173724331 0.192176467159 -0.183435955015
-0.424923304392 -0.00589973866153 0.674467656039
-0.49394104616 0.0223072348572 0.681756979991
-0.362568807792 -0.0604236110382 -0.13013322345
-0.538860270964 0.0925286821624 0.97786103527
-0.504240357294 0.123954586831 0.980204550521
-0.567699231503 -0.0831472063308 0.980898475081
-0.518765671609 0.132259396381 0.979022731558
-0.820468628662 -0.160949166377 0.56460074655
-0.817795663478 -0.0265233972354 0.542970630272
-0.592453703438 -0.0791479802233 0.709512690474
-0.84346522902 -0.407955620323 0.50795822868
-0.293115567205 -0.406929097531 0.348903498617
-0.316667203881 -0.126362529088 0.25016658953
-2.3941735266 0.21387892947 -0.350163714649
0.1401136902 -0.108085609514 -0.0929937728783
0.211587794064 0.108661321671 0.389476170327
-0.263171129476 0.0542672054439 0.428696561601
-3.8077560299 3.88576005058 -0.943604530069
-3.3533623356 0.226287231386 -0.521789634982
0.0233522577798 -0.0321592158453 0.444261439661
-0.238417156671 -0.1956452056 0.397082580995
-0.87780473506 0.125339901523 -0.494651323518
-0.313820603894 0.0828076099886 0.151908204315
0.127937116546 0.0644499041287 0.202004233852
-0.246205134364 -0.143691850458 0.387105766993
-0.343918567263 -0.924951257483 0.021140051091
0.167394819969 0.0550362846423 -0.0942884938973
-0.368046572837 -0.200419659405 -0.075133424279
-0.285583534595 0.0588655068477 -0.406838833682
-1.18205775633 0.243806551334 -0.137290443559
-0.29123078188 0.145711188717 -0.0856182076174
-1.03615292913 -0.0689263356699 -0.335184165798
-1.02467160531 -0.0652436563765 -0.344335583539
0.201813999965 0.209382288151 0.233678313675
-0.243825087602 -0.222111615605 0.495219345077
-0.286425313051 0.0628346874907 0.465281847968
-0.790822586368 -0.360344933037 -0.0975970565209
-0.273871746818 0.0571967901402 0.45119120996
-1.06148852287 -0.0272458146809 0.708889735694
-0.267502276306 0.122675861739 0.489104811369
-0.218883334986 0.127534860248 0.422740646788
-0.356717771422 -0.357675019762 0.105972941659
-0.553355368984 0.0651227448253 0.619082144906
-1.28028949518 -0.00285489026583 0.296071919213
-0.897270958903 -0.0305728102108 0.809635776001
-0.798407936976 -0.252047306237 -0.0726354303921
-0.280455461751 -0.145404498373 0.477804875056
-0.289339528878 -0.286280525707 0.478751099403
-0.279144586509 -0.145679903204 0.491721980277
-0.45605364401 -0.0303441315884 0.680327536618
-0.448447281483 -0.150302071762 0.595427122017
-0.445051403813 -0.0290819601979 0.683211670587
-0.664961010569 -0.353049626404 0.628318974707
-0.444978149499 0.0134865064797 0.676133861676
-0.464206214089 0.00189145746279 0.67949026056
-0.463867970214 -0.0396586518306 0.681731342194
-0.460012213642 -0.0399978687703 0.67147440576
0.107055543194 0.0991267833571 0.165599866293
-0.438371312599 -0.0218721609093 0.674710150279
-0.325833520817 -0.22916384024 -0.068126549888
-0.825901664058 -0.518830043591 0.577302129204
-0.0641166931369 0.0991824064077 0.727713287842
-1.19552076008 0.17759147721 0.434415605964
-0.547997027638 0.0337934496026 0.978112596014
-1.27049864366 0.129718699106 0.291046476038
0.206248653802 0.199441555161 0.379023652543
-0.254505601274 0.233265901153 0.0324970027005
-0.149034555087 -0.0516290949329 -0.324795072844
-0.0283459034828 -0.186461764255 -0.237147577446
-0.299192690705 0.052304941663 0.296401171207
-0.314369714884 -0.123185474559 0.279357341213
-0.161761370937 -0.0920387807086 -0.326062075927
-0.339274759534 0.0118822313806 0.119075415142
0.0565550289905 -0.0619062310102 0.0254880193209
-0.340469956074 0.0189181857364 -0.0645251375095
0.139663246884 0.0826519544036 0.321032960051
-0.258796802782 -0.054682466612 0.481030831613
-0.337721079163 -0.00418015894569 -0.0477492338366
0.143036653143 0.124488040519 0.220434410296
-0.408215104952 0.0992672169781 -0.479177876924
-0.655986393827 0.0931865322147 -0.5126154496
-0.659338621258 0.13607441568 -0.507349528681
0.0144352361973 -0.0558279461391 -0.194243461915
-0.737580744558 0.134883311644 -0.171017601994
-0.800154960563 -0.344742248845 -0.0855662035185
-1.0718428086 -0.0255606034418 0.78310248406
-0.757184525933 -0.0374736695308 -0.16814763542
-0.336173382382 -0.258142068068 -1.04886371362
-0.718149039611 -1.53774806401 -2.1295709553
-0.221310802713 0.0674327091193 0.480539244296
-0.283620430716 0.0599176783168 0.101767132804
-0.468313169353 -0.0689679476473 0.156533577266
-0.405406962588 0.0687345819283 0.571368616426
-0.536835938943 -0.606885090087 -1.7049476234
-0.30243384264 -0.420361626414 -0.922460143039
-0.371349561329 -0.124396065285 -1.07634780805
-0.288229000868 0.125911315803 -0.400103183266
-0.851689794277 -0.0292988394456 0.948354059111
-0.776452505121 0.0487758476019 0.956895570678
-0.713258970921 0.0836927987369 -0.547781134536
-0.252575666314 0.101450048306 -0.713697775861
-0.356110653391 0.0458324148922 0.125970517825
0.0274533717933 0.118335403435 0.6142830762
-1.16331189038 -1.73781181776 1.21281644186
-0.20861135417 0.0476252810141 -0.0776956175063
-0.211222558509 0.0480709929444 -0.096353721712
-0.250755649253 -0.0713853974081 -0.0629784398572
-0.141021131991 0.050214862781 -0.30417499431
-0.553582214738 -0.0857151219901 0.919123968661
-0.389349630592 0.0331104496397 0.622579731241
-1.07619147606 -0.0181119632143 0.721643495089
-0.589005535394 0.0756712372684 0.688687682987
0.11961037408 0.10503433603 0.280646418724
-0.522761735121 -0.0391695170466 0.683071841955
0.0976540247369 -0.104733809506 -0.120603720678
-0.816703039368 -0.0869760988452 0.575957375591
-0.441249395791 0.0454794321617 0.955593446671
-1.35775589074 -0.024081818273 0.144289714753
-0.342814684245 0.0362555194339 0.184010779002
-0.346499962394 -0.244156446859 0.298575871514
-0.530434106388 0.0686758331259 0.93730133467
-0.336294872261 -0.109974890348 0.307190856383
-0.382575024465 -0.268226409729 -0.132844688363
0.164722191954 0.101516003213 0.247962907839
-0.715764228392 -0.0751950076851 -0.158412168693
-2.20051412569 -1.50960032467 0.153815737301
-1.83665026516 1.60622402253 -0.50170991304
-2.97593746364 0.245332161618 0.043754676695
-2.83852831647 0.951629175853 -1.19641460424
0.0739114840473 -0.00390519918232 0.500322668425
-3.33127876585 -0.385239670836 -0.664440510229
0.168100223102 0.0911561580779 0.0686090590429
-0.509520949828 0.063929427495 0.72615690391
-0.174307844733 0.17063793956 0.984598792898
0.0935454295096 -0.0871475483418 -0.201651096479
-0.529372758768 0.0825059306297 -0.558248490164
0.0195395731498 0.066051740612 -0.186912909563
-0.8759377318 -0.103657211691 -0.508082341623
0.0314652938857 0.131681019643 0.637096106438
-0.662483067528 -0.158582658895 0.361622310794
-1.25151407016 -0.0258942391517 -0.160293896856
0.162459797641 0.0849969548954 -0.243095481253
0.201579476212 0.125533022735 -0.0318618895776
-0.834222454369 0.268794013332 1.830521656
0.156987852326 -0.120480900201 -0.0899715517917
-0.302451399671 -0.065097352432 -0.0728223650625
0.234745117578 0.141689816675 0.489431648032
-0.424465042984 0.0527413990222 0.668520306819
-1.36805602729 -1.52112585067 0.101652832711
-1.06331358717 -1.4261675495 0.0647293468552
-3.05879976369 -0.952093892989 0.447329329342
-3.20376316987 -0.735666715772 0.467391568305
-0.426144936111 -0.137893284132 -0.50471048553
-1.2991798932 -0.0947332672932 0.00567853347221
-3.22195090955 -2.05596316267 1.71976146171
-0.39582879114 0.0671012633222 0.991525913722
-0.758557552048 -0.736757533475 0.989307818851
-0.43351526103 0.0179251228365 -0.50464329482
-0.555052453632 0.079460413811 0.966400314277
-0.883568064429 0.0981478493065 -0.510219270069
-0.201204365765 0.146844170292 0.948670779179
-1.29126386238 0.0519333877471 -0.0161618328381
-0.430988036428 0.0894108826568 -0.470504227059
-0.696003874206 0.0552838662137 0.899257217573
-0.167856274973 0.102237449811 -0.259112527539
-1.04940192142 -0.0947720539706 -0.481425984623
-0.928260002517 0.10711879283 -0.461415048028
-0.443540873548 -0.0189993918861 0.674608947264
-0.452077399837 -0.0010571907725 0.676342840392
-0.4665934769 0.0780513977818 0.677375528832
-0.288173504221 0.0877502771593 0.345187494477
-0.245130791099 -0.18040713435 0.386721132218
0.0889540782853 0.0537802022331 -0.0992327725095
-0.15378960078 0.0583725648005 -0.299133736771
-0.323986081389 -0.0926387787408 0.055811417559
-0.722248087455 0.112193473852 -0.548210018932
0.0993388872166 0.100622172501 0.24426943957
-0.745104029564 -0.045907613969 -0.560743697312
-0.561845967959 0.0774778891407 -0.584387974259
-0.18831547652 0.0946989364803 0.534111372464
-0.0879612936164 0.16473046014 0.6832891677
-0.15474637533 0.0814596747127 -0.31976876313
-1.02973745607 -0.0233326837586 -0.479616984639
-0.883863630589 0.0459356975629 -0.50810391393
-0.269035719183 -1.06974774959 0.433704593753
-1.22004606386 -0.00284062787386 -1.0523577655
-0.305746099869 0.065716074516 0.508098593068
-0.269819733385 0.0545384125869 0.438261174722
-0.264037405847 0.117353388928 0.899608019375
-0.31847012909 0.122021148373 -0.404682477813
-0.0433888936181 0.10920129994 0.635131804588
-0.406198591574 0.0700332868698 0.9319231939
0.0812219852746 -0.037958942361 0.358179336166
-0.458543617537 -0.000305623458684 0.679831674961
-0.902743373209 -0.079431029266 0.806844502933
-0.478949727914 -0.0479707630453 0.928614958031
-0.701706291565 0.257140336098 0.594012635658
-0.96536413517 -0.00650569801386 0.678472472086
-1.23766505302 0.103248822856 -0.161588007964
-0.468497561963 0.0355576659312 0.579189693635
-1.21232373951 0.0428851801546 0.434990248913
-0.561516280258 0.0377801835318 -0.555676925833
-1.04434909966 -0.189747031458 0.955164074888
-0.769924054199 -0.336668226865 0.245687354054
-0.249083358355 -0.098856094897 0.384119879437
-1.23661789698 -0.0541301118455 0.41539719549
-0.0732439649286 0.103848626021 0.659901831375
-0.814479018623 -0.0224367108641 0.559868588879
-0.0706795830804 -0.0903880721222 -0.193320014825
-0.1978411497 -0.0516488774785 -0.337642813281
-0.486164756753 -1.56366570916 -1.45174667646
0.121018436253 0.0892293747108 -0.224464195311
0.12410031165 0.115647667034 -0.319428646936
-0.224902829896 0.0859709211338 0.442666074521
1.38759228542 -6.6777324732 -11.1996910555
-0.343512538339 -0.151084459232 -0.00473518586217
-0.455033909767 -0.0134838695826 0.68001253736
-0.129422217355 -0.0144853614562 0.76996342532
-1.1916357727 -0.120542778836 -0.163784560546
-0.431025035662 0.0518281721223 0.653443623572
-0.799600770403 0.0395995634122 0.150096775905
0.173101438839 -0.0202182755591 0.462703962701
-0.232866679909 0.0207445374524 0.426247605706
-0.656030590828 0.0506361611889 0.256521645692
-0.821097793466 -0.0253570725315 0.489856729638
-0.612006050922 0.238612872057 0.963304825481
-0.731593914133 0.0521665607308 -0.542572478373
-1.25137264818 -0.00684095332566 -0.164343100381
-0.46014299621 0.000747453273049 0.679077513925
0.120943461249 0.106850441382 0.298465625885
-1.28676409745 0.121272815331 -0.012921838706
-0.496104537495 -0.051284466847 -0.453281374565
0.0269676862643 -0.00492588921772 0.625970990497
-0.265680130276 0.0774219329534 0.450232213907
-0.298970093885 -0.0641889143609 -0.0405368539224
-0.293460841785 0.0131219873736 -0.0269146922794
0.193912729578 -0.0616524305416 0.234507323838
-0.138024975991 0.0458601826129 -0.298186625267
-0.28538886825 -0.234962183741 0.454304525257
-0.119843063676 0.0106866738383 0.706882654633
-0.666964094767 -0.0372940069015 0.906084650803
-0.824793512313 -0.588376827731 -0.0730698135302
-0.219904901801 0.117343900303 0.855985440433
-1.20394256419 0.0965523778082 0.446185897399
-0.392341696558 0.0796568824907 -0.0607450014753
-0.392871191205 -0.29076597257 0.942530831513
-0.35751315272 1.70318351258 1.88493897544
-0.245451195028 -0.12931770278 0.490510768592
-1.22386354147 1.67063519117 1.37542496949
-0.335421071133 0.144256096929 -0.0646393673447
-0.321900159995 0.0564770531421 0.0224756217313
-0.611415239745 1.50138510522 1.41742911076
-0.0618659793745 0.118887270978 0.696435310971
0.180547671684 -0.0181019791576 0.227533827001
0.106085368608 -0.695983846175 -0.156760165081
-0.30025090275 0.0140603569133 -0.0843335503217
-0.0342600503711 1.70454421845 1.72853323051
-0.457844066408 0.0190290203358 -0.160016058135
-0.255478570726 0.0625066246496 0.508787605064
0.253909701605 -0.0416554322365 0.433993168012
-0.495912089311 0.0620996366593 0.925449503885
-0.523615042118 0.0820983208657 0.917287020402
-0.451372689444 0.0590075137398 0.931626057369
-0.47727328994 0.00145035393057 0.929716678941
-0.498891636416 0.0690207289936 0.682535293487
-0.42504679779 0.0599002847308 0.989327379762
-0.502395789295 0.0487360433846 0.677229305686
-0.39893847324 0.0193244381375 0.992166634311
-1.07014705288 -0.108043411361 0.709096213385
-0.25613178387 0.148090915521 0.99937653483
-0.76573493653 -0.308992976571 0.246792244705
-0.785839323261 -0.190644690088 0.222690767524
-0.458396329438 0.0156591909032 -0.154033262596
-0.803938645269 -0.076577254289 -0.101612622987
-0.772821265343 -0.208892156355 0.23712728619
-0.529142620797 0.102529591214 -0.55739256421
-0.452508880193 0.102116609425 0.985842514537
-0.529623248794 -0.0399121045567 -0.559601817412
-0.288836439828 0.0655501342882 -0.0120326508697
-0.491302079192 0.0183182582727 0.674755040941
-0.270458112756 0.124283455399 0.893059249558
-0.816550209385 -0.0606356034134 -0.0720581317246
0.0882449400262 0.0704054945284 -0.195400007164
0.123188752925 0.0639851564712 -0.144493974507
-0.323453022008 0.0093366868795 -0.184845696467
0.155627722497 0.110293736699 -0.0402414568493
-0.801200847643 -0.00659118003862 0.162257785687
0.00522553451587 0.127193848481 0.659327861573
-0.330895256262 0.0195115882043 0.0599186789613
-0.252003723306 0.118084058241 0.457344562302
-0.458763934071 0.000453494089565 0.677438463929
-0.257618065072 0.00776735510612 0.4352060538
-0.352198675899 -0.0119628518185 -0.119819455311
-0.360724294974 0.0191312799658 -0.129418053038
-0.281690611583 -0.0568235899828 -0.349284076054
-0.161275024083 0.0636541199008 -0.253667852906
-0.287278134476 0.104224802998 -0.347489163669
-0.0416551095057 -0.154800427531 -0.241803455083
-0.939282766948 0.057292329941 -0.425972767921
-0.297206171888 0.00975615578576 -0.0683492282602
-0.670853423638 -1.08812097041 0.661027648416
-0.445414999113 -0.1089871824 0.940006847083
-0.0380272608793 -0.00564039853772 0.661317696203
0.217967309119 -0.0728429371657 0.377273456525
-0.0764610692787 -0.00419288349099 0.748090894702
-0.642590391604 -0.126533590995 0.355938858367
-0.224993477883 0.0137445357291 0.482207679796
-1.26801133097 -1.49173947045 -0.172485960037
-3.33704514883 0.343511840964 -0.502385918572
-0.33607692908 0.0576071207573 0.235163051196
-1.0187975149 0.0803506978895 0.67565756983
-0.89880547573 0.18583989915 0.925729749528
-0.300624042164 0.151227482215 -0.0745818391672
-0.283147102731 0.237615190492 0.0498127259561
-0.23706316816 0.0157952972235 0.398233892467
-0.306814845869 -0.0733663322703 -0.10202877338
-0.294581638826 -0.0682789703211 -0.0356602245303
-0.333922865587 -0.0969047928233 0.00569220095916
-1.34182938586 0.0699938963481 0.155771802662
0.150442035022 0.10253567565 0.475165003521
-0.338748676475 -0.100039588954 -0.0140875243263
0.0962687096699 -0.0760321019853 0.0440614634606
-0.361060076767 0.101304404098 -0.133646138093
-0.328511432181 -0.0923200644665 0.0516335966831
-0.256050080688 -0.0717230268897 0.430714357687
-0.249337872484 -0.124302084645 0.422358664703
-0.344066786744 0.0711435081572 0.196761254841
-0.926489671313 0.0702773830569 -0.439573206856
-0.697561304072 -0.462039753758 -0.167243623244
-0.993622656627 0.248749589851 -0.332486736623
-0.881286864902 0.127655381861 -0.508909338312
-0.154801937823 0.0164004610878 0.856146382155
-0.223696269194 0.0596590943911 0.482475345626
-0.238325363062 0.0310399795762 0.379965896525
-1.35039025421 -0.0780899858341 0.143722680195
-0.835219779306 -0.00624266568003 0.946857970952
-0.523489832628 0.0737848840523 1.0141177119
-1.28160748786 0.0543671077708 0.286886065662
-0.477245747855 -0.49542146655 0.934526732303
-0.269589802513 0.0565888402277 0.502852034286
-1.12643456193 0.149798132192 0.589100348238
-1.14652652276 0.0596836140577 0.59911168332
-0.620125151643 0.215258919418 0.932541674119
-0.0436605190142 0.107288901818 0.632991777129
-0.948778729376 0.0401809522084 0.930779950538
-0.820154621703 0.0768656927384 0.943637310866
-0.928343394358 -0.0499815149875 0.938066923242
-0.919369167486 0.130417660318 0.933500377825
-0.90917938981 0.103382038345 0.934233900919
-0.174514590598 -0.0146299800725 0.0707939489717
-0.499969812328 -0.00214607046317 0.896314771608
-0.101911346816 -0.0207912974789 0.0492405751137
-1.65070118898 0.812608000898 0.513723947127
-1.59421604429 0.881323592555 0.227577358997
-0.240360438271 0.0157574074904 0.968688443817
0.627847230721 -0.480908323701 0.601784938589
1.5084151533 -0.495526538657 1.4261927124
-0.170534451828 0.13675973309 0.635368751764
0.139259998189 -0.0201186850151 -0.0876543000753
-0.0505914917848 0.118053318228 0.693658066944
0.197416466104 -0.0258041302307 0.22943993477
0.128126046544 -0.473543793577 -0.120594208232
0.00974841346657 -0.150968789729 -0.156151309667
-1.05759005878 0.1108949356 0.747517053726
-0.328592661155 -0.147865344653 -0.0538429981145
-0.43441415677 0.0407511571775 0.619840179903
-0.355203781246 -0.309493159161 1.00314168804
0.134454590126 0.112424140383 0.458501611674
-0.992692693683 0.115848436229 0.849469007241
-0.236329560371 -0.182014808904 0.463810309837
-0.295541751213 0.0423886525795 -0.0592845428856
-0.339910068326 0.0592934761307 0.214223046509
-0.370269554845 -0.277785020581 0.12263769151
-0.298842380569 0.0548782240711 -0.0977176586054
-0.299281988644 0.0434969469799 -0.0933342383338
0.0810482369493 -0.0217895216001 -0.0851384529058
-0.449027390059 -0.111683886047 0.944579107893
-0.493233899913 -0.0710412242379 0.936884093235
-0.917413538002 0.107330557546 0.933640024169
-0.821277703896 -0.0807448902636 0.507641342868
-0.824410194972 -0.137106372796 0.513327879273
