#.PCD v.7 - Point Cloud Data file format
VERSION .7
FIELDS x y z
SIZE 4 4 4
TYPE F F F
COUNT 1 1 1
WIDTH 1069
HEIGHT 1
VIEWPOINT 0 0 0 1 0 0 0
POINTS 1069
DATA ascii
-2.6268546132 0.558348040522 -0.947454993806
-2.87417567905 -0.441705443079 -0.958458203536
1.10516492407 -1.15335683683 2.06608345365
1.35908925787 -2.09159550609 1.25028262504
0.894667841579 -0.00287855442863 1.48544315516
1.42792063283 -2.89682305251 -0.801694129415
-1.0009190962 0.423550685482 0.777047797011
0.871692479905 -1.88930707893 1.46054523804
-2.62258109844 0.474903119067 4.7234777493
1.0137455525 0.670428480695 1.69266084086
0.615857504548 -0.772702783098 -1.74506928942
-3.76613038113 0.0226601828138 -0.840350626335
-3.76831101241 -1.92359306272 1.21042261607
-3.99790853355 -1.00738797544 4.59500206662
-3.95883339411 -0.845662227455 4.33250360531
-2.04694775514 -2.44542712 -0.906330307333
-0.621489522269 -0.894685951209 -0.405894924437
1.29507537276 -4.86606836417 -0.671682546232
-1.3418577405 0.491771359886 4.68698702474
-1.41376166887 -0.00525729167418 4.69430854616
-0.705922262739 -0.433193663782 2.74691207657
-2.20978391849 0.347015909172 0.76245521442
-2.14196296674 0.0444561821935 -0.949291301971
1.38908413826 -0.298565576753 0.965254642672
0.911198278778 0.778464862486 0.642200962943
-1.5282401678 -1.39048080497 -1.24298197986
0.901392553906 0.286831788241 0.40091094251
0.912206586498 0.785723355064 0.85577215988
0.909647648566 0.122049213177 0.51004574597
0.913517952792 0.588736363419 0.544943391264
1.38638771187 -1.32011672831 0.797490889774
-1.18785795236 0.615951451328 0.0720091210025
-1.41228606048 0.141340666058 0.774128300012
0.903880928389 0.0106983630697 -0.0339967724339
-1.02042350469 0.0836344766964 0.764488569614
-2.48807031794 -0.158200581165 -0.964440518541
-2.26665996269 -0.0235711561281 -0.963199309406
2.10779872428 -12.1279807287 -0.819774656598
1.90988508498 -5.57840553263 -0.756651081311
-4.2190057677 -3.37378433587 1.68529977932
-4.38347891413 0.504003235636 3.66650688368
0.446406726263 0.650964937717 -1.05153204531
-4.06212807055 0.0904389291778 0.236787444922
-2.18597246641 -1.27541845515 4.84563304478
-3.06195050601 0.677785445718 -0.770889111417
-4.01231993498 -0.684149477952 2.23353875414
-4.00984571333 0.689531738784 0.472885177006
-2.6787886086 0.37821844123 0.990974374262
-4.07240586384 0.212537789758 0.647669495015
-2.16952043764 -0.0756994024745 -0.965665417924
-1.17045165195 -0.148464129498 4.64804172287
-2.21593123003 -0.199102181393 4.69325162808
-0.648134545317 -1.70584098176 -1.52687877272
-3.92469897662 0.687076762009 2.05590071167
-2.2877212316 0.768509422724 2.70554669239
-2.15635470948 -1.08239214722 -0.89597392365
1.06146274199 -0.787727551564 1.91527307759
-3.9716436306 -0.259175187508 -0.452557417202
-2.61401571412 0.309417760809 1.99747685993
-4.05598389105 0.0331011814018 1.20650577968
-2.67840000801 -0.035624080513 0.936944493283
-2.66125228844 0.419240719005 2.71874353367
0.550166014546 0.395588252059 4.57678188345
1.09551191848 0.109406021174 2.40871220321
0.64485496793 -0.340312691317 4.56662720061
-0.0967983340379 -0.0704819229455 3.82327123257
1.07426535303 0.629968478861 2.36871036114
0.732452069003 -1.33860196213 4.82794537197
-0.72101175158 0.426319039952 2.04340004472
-1.49490150836 0.576044912773 0.77729775976
1.37320464283 -0.306098423649 0.752885390543
-0.266789464703 0.76578707484 -0.842276644474
-1.5432159172 0.0828942151348 0.773953660259
0.908190795756 0.121135741117 0.0818154516524
0.907667676212 0.306901067747 0.394612782319
-1.44032479862 0.293142265516 0.775432528292
-4.13028068119 0.476663905764 -0.347174381395
-0.783471841897 0.827015164491 0.164781292478
-1.18117114712 -0.05613998822 0.771017578492
-1.32854143078 0.166325267206 0.771162183111
0.369814135613 0.287807988001 4.61052875277
-1.44124942479 -0.918207321598 -1.15203268552
-4.3240889347 -0.404429446881 3.36558866597
-0.755298351536 0.371763312796 2.28192411646
-0.47898177983 0.410764072063 4.65299233653
1.00326178479 0.624842719063 3.3367757382
1.31024374273 -6.33043304786 -1.8504747554
-3.93046504279 0.151411657878 4.03318206497
1.19687855126 -1.76519223064 3.83580870105
-3.97577450287 -0.414419948012 2.67342746565
-1.67729235859 -0.030762630825 2.69991087447
-2.36841938915 -0.016209541197 -0.968570252427
-0.361983891472 0.722775717926 -0.857469438156
1.37605669917 -1.29691035714 0.992562245186
0.91562448407 0.39730682364 1.22299352816
-0.737221771427 0.246191635654 1.04056691986
-4.01286140388 0.0817073753176 1.08904318822
-1.68471407173 0.583629410108 0.772695950121
-1.54246534649 0.21387531568 0.776188463658
-1.44865825423 -3.63787940159 2.48115596588
0.876914089195 0.305966198206 0.333343080647
-2.17571897383 0.261115352883 2.70784236357
-2.82001788685 -0.268831045059 4.71538891627
-2.28766944884 -0.0582486464089 4.68718111638
-2.17853121599 0.137032344154 4.68849248996
-2.11802196599 0.0467588705889 4.68629699534
-2.77561140924 -0.066122607225 4.70508639976
-4.379959981 0.675724422348 3.03357255487
-3.89674187399 -0.457306278547 3.18484315184
-1.58823975977 0.206500958636 0.772919547317
1.1138858386 -0.154262803467 2.93862466494
1.17681258699 -0.166565649469 1.63482089401
-2.26555045559 -1.17203986163 -1.00723353816
-2.14616978271 -0.0122594624919 -0.973898365479
-1.59229466868 0.201176027227 0.762590915455
-4.40990979779 -0.360751471546 1.7935477189
0.24654932852 -2.09733876717 4.7135000869
0.617369121194 -1.45676072422 5.18930724896
-2.81376344617 -0.987884988317 -0.899668999342
-3.92151313138 -0.358314832586 3.38300800107
0.90522233872 -0.0450478536701 0.731084373231
-1.36867594979 -1.06229306404 -1.08228117557
-4.07448128569 -0.659091330594 1.27363604211
-2.98159418424 -0.0164272779929 -0.809547184897
-4.06469618964 -0.274420042765 1.21473707217
-4.06383057293 -0.218509157875 1.31607635267
-2.03659194711 0.729941206519 -0.953246550102
-1.01535563162 -0.572944190836 -0.964785276877
0.90429097448 0.0258799657284 0.196966053528
-0.7010497141 0.704293439342 0.728362756777
-3.85376370664 0.540423203009 3.81898611581
0.896226332379 0.775772039437 1.48435920322
1.02037159841 -0.918268998599 3.43551943761
-2.5094085797 -0.0776207720289 -0.861951998047
-0.769955543298 -0.148075449766 2.31301525862
0.837968459968 0.432892589213 -0.163643221395
0.905725502975 0.705327836635 -0.0735217472078
1.16052655626 0.4972235335 2.24763058404
0.872846084915 0.253581457596 1.70689550329
-1.74383009067 -1.65064452992 4.65138436423
-3.22477304116 0.369579663521 -0.940331492733
0.897132001991 -0.0371056301749 0.964929633575
1.32069967205 -0.496477809635 1.50419115805
1.04550599537 -0.647497859278 0.0944085317456
0.608620325052 -0.820848961358 0.372228227371
1.16791296923 -0.788410187721 0.370763471679
1.13949267045 -0.730684160699 0.43965927691
1.37845325122 -0.414624629168 0.534260879065
1.32997719784 -1.32575323888 0.0545207531912
-2.58195240162 -2.14234752458 -1.01076761817
1.00680452591 0.117720553357 0.627915992528
1.77719023947 -1.59657385398 1.80578808711
-0.758369967466 0.493821477522 2.35067777843
-2.45229289442 -1.9446015776 -1.00999230716
-3.07639513514 -1.1838542342 -0.976399740199
0.90402553879 -0.0394447683841 1.38710042695
-4.0612492518 -0.211397311542 1.37679271027
-0.29851380656 -0.360237634861 -1.10174945238
-1.19690571495 -2.11450111277 -1.11351320637
-0.669783002562 -1.71721975548 -1.57338124387
-0.749727097599 -0.447257742685 2.27437894441
-1.11252527257 -0.597154587236 -0.94653379283
0.910133460785 0.0135702006549 1.10816572052
-3.83580961117 -0.133358914292 -0.495745594374
-1.78089240875 -0.796939909463 -1.11971580638
-0.77127831251 -0.237363457542 1.68522594481
-4.14985121725 -2.09029102192 -0.161606954937
-2.29842048585 -1.89356717442 1.17737089783
-4.05602780664 0.149690705187 -0.107929867498
1.04992754436 -0.35678268713 2.03256036849
1.04390549689 0.353306215597 2.05758398862
1.05095560109 -0.289847150122 1.77448722506
-1.0987726624 -0.828698582982 4.65234768105
-1.67306465807 -0.475535909612 -1.08461101443
-0.732437200819 0.549066009594 4.66206052181
1.16713352191 -0.665706010403 -0.0603657326637
0.811212680325 0.164400711504 0.0495065824092
0.762387294211 0.276842112288 -0.0886975135422
-2.56190951483 -1.84472382811 2.98725878609
1.41682758288 -1.53249267473 0.654300061167
0.885805419266 -0.0299717455573 0.773781923184
0.684011932369 0.16600066036 0.181680104444
0.52928185826 0.124316927553 0.342243793706
0.51618538899 0.128007042498 0.329609462488
-1.67143925057 -1.01438045822 4.68787298155
-3.07136428582 -0.24142769418 -0.977632081323
-2.67122521491 0.188917549067 2.49450328184
0.560710971123 0.287850449389 0.382628721945
-2.6152241052 -1.15391339709 -0.757403982498
-1.71784001651 0.658246213597 2.70136005977
-3.97543008957 -5.4077062149 -1.09519639512
-1.73067393883 0.238344040773 4.69363176266
-0.5607359474 0.573165279407 -0.912298079201
0.19441046563 -1.08734479033 4.64153537787
-4.33808261903 -1.48180747831 2.95818029851
0.974387073379 -2.17496509194 1.8007731074
-3.91675500959 -1.97492757093 2.24590802954
1.02004976381 0.0319985080298 1.05229973735
-0.0935042408131 -0.814083337092 4.71947625762
0.242397499463 -1.17359262014 4.75032978768
-1.29275521735 0.604273895174 2.69691761869
-4.80714044939 -2.40755061083 3.89830693357
-3.83134450002 -1.25859363018 2.1412530895
-0.672444955495 0.721388333705 0.728395211603
-2.68211700456 0.412911206925 0.693340777889
-2.02833673943 -2.05550743027 -0.960917951451
-0.828952383218 0.672270817906 0.772874260429
-2.69372467668 0.860521478556 0.842093242872
-0.971830769147 0.225580110677 0.773414218094
-2.60137555178 0.418390095566 -0.938000171327
-0.671140523812 0.663415590728 2.53513933959
0.93503245948 -1.71175306998 3.34560018246
0.972038553369 -1.91002551991 4.62513850413
1.09619989537 -0.762246329469 1.14687263482
1.32301318119 -0.236481459597 1.03163262677
1.07957661477 -0.0992684224063 1.85857469253
0.912809443918 0.304819997739 1.11012615232
-2.74325601731 0.00384556464214 4.68577984473
0.917043989291 0.635819944224 0.22417471172
0.597727412625 -1.11618104771 -0.906320757313
-3.89030327828 0.296907300806 2.97938888769
-2.31610454937 -0.16369202273 -0.965818540442
-2.66169443268 -2.81316771083 4.78117162793
-2.66594819758 0.484357014128 2.49901165681
-2.67280974917 0.315697982891 2.45867498261
0.95578794639 -0.0614412884509 0.661862674393
-2.89687797242 -0.687508640113 4.69728991551
-1.2456735909 -1.85204223205 -0.85201633601
-0.714121286966 -2.1685272698 -1.16162081587
-0.812920034712 0.728681737043 4.68611831626
1.62011392491 -8.92540901311 0.586335295742
-4.0352747132 0.631577306323 1.61019418404
-1.12077221374 0.659271219218 4.64695172265
1.29232299217 -2.20034264944 1.1890276367
-1.55969423308 0.571644789036 4.68752372885
-3.99913855891 -0.885317697154 3.42895138862
-2.23647009562 -1.22747323094 4.70581509374
1.30731539805 -1.05929669926 -0.198526400921
1.31791734681 -1.99357040465 1.36164214682
1.09258932564 0.338128878674 2.30631996548
-4.05645303415 0.0297180139315 1.31600128168
1.08765361439 0.0478579335535 2.18882970575
-0.722881031246 0.491560730817 2.14273147777
0.935103605038 0.268615022221 -0.409536391889
0.537100120157 0.409952419818 4.57148983899
1.15300706455 -0.71799552578 4.56863156985
-2.69545973855 0.737741321041 0.799013811746
-1.55875191149 0.295546789951 4.68326625618
-1.9987725903 0.689342696756 4.67132062679
-1.2170837172 -0.225837457516 4.67227100687
-0.760200202475 -0.0830582086288 2.30745175118
-2.14976894837 -0.162549192129 4.7322534413
-3.83256182452 -0.391514186811 -0.499022368937
1.01941028742 -0.147889083942 3.06090643041
0.887716362558 0.332147950098 1.50045720161
-0.687083345873 -2.56700307579 4.74685144815
-1.65675585139 -2.34395057636 4.73118754093
-1.23353058243 -3.64672407923 4.75942462087
-0.14253588256 -2.95977705967 4.69173521573
-1.62568699546 -1.18449207657 4.70038849315
1.32900925075 -0.849777733506 0.355169649815
-2.19421352424 -3.91558917265 2.89386705542
-2.49295022644 0.637420974976 -0.963500555343
-2.68265304577 0.247134679609 1.79375232794
1.38019083592 -0.492146490167 1.04869394089
-4.03950654912 -2.8778310521 1.75044141381
-2.06958942802 -2.41490291373 2.1584746998
1.18458581986 -0.0342932746623 2.53225873906
-4.07993887328 -2.1762459614 -0.304271966031
1.04600935046 -0.254185030441 2.16088219156
1.02995184203 0.0456826624077 2.19043414989
-1.07938021967 -0.157280663998 4.67791611535
-1.06716724721 -1.65943825475 -1.00902159004
1.15592075184 -1.14671023913 3.98264115526
1.03211759208 -0.0839268168116 2.37439080152
1.03181936174 0.00264054515771 2.5154013185
1.27155542816 0.467750323704 4.11599430602
-1.42398912433 0.629315001921 -1.01992685133
-0.741147440908 -1.02134560776 4.67493099458
-0.767535440037 0.380048559 1.67199886041
0.873417772431 0.320648588547 0.674469104276
-3.94362267307 -0.51352345296 3.15149834404
0.930521862343 -0.00624373401506 1.44293296023
-2.08551985142 0.108913855095 -0.969262382052
-4.04286397927 0.192586903695 2.63264997383
-3.35764910153 -0.492892368348 4.67548123484
-4.02323776732 0.524891395978 0.904054079739
-2.46369710513 -0.493956482024 4.68894083742
-2.95889359188 -0.140680543557 4.6874291998
1.45254962924 -4.64996858864 -1.78445999711
-0.430227098791 0.421817704668 4.59684944018
-1.4473394619 -0.0215701216398 2.69702934895
0.863676065833 -1.08556845842 0.728953014303
1.33198550257 -1.32494264038 1.1304930101
1.33582184083 -1.12602049242 0.726751453504
0.869620222608 0.576570878427 1.16630454984
-2.01351168093 0.59473953127 -1.01988723506
-0.738711653106 0.29093489795 0.880761081895
-2.80937186823 -1.51490313297 -0.989601016514
-2.62644853735 -1.1668608551 -0.992662832238
0.683120757656 -3.87006600313 -0.472680870499
-2.50431537919 -0.513445173819 -0.975318619896
-2.03231054027 0.760308832707 -0.965817108737
-2.00501886719 0.269801316724 0.767530446583
1.13780295195 -0.0314503870667 2.4628961161
-0.973291629459 0.782693161945 0.243545936074
0.675394380468 0.840072856173 0.552664181763
-2.08129218834 -0.0553019109783 -0.971989253115
-1.97831369508 0.603234666467 -1.0164176851
-1.73877501035 -1.84796319907 -1.03065483616
-2.46888306277 -1.14909339954 -0.871402004868
-1.67058861205 -1.24591419046 -1.04020377343
-2.66572200386 0.824018717405 1.44223037096
-0.899394521223 -0.06107447242 0.748970320133
-1.45769918678 0.299161096837 0.777880943149
-1.2652975043 0.341527320548 0.771117620919
-4.39285719083 0.654917999258 3.03993011666
1.07896676981 -0.217115660829 3.67572649758
0.927270121051 -0.749467868884 2.90657360466
-5.20018027428 -3.85833301862 1.23298854196
-4.38603528456 0.622638927351 1.00018284395
0.947762309954 0.332226471624 1.44576686106
-1.8833188872 -0.324598494704 -0.949064510666
-4.01476077725 0.133228809249 1.41370829159
0.903356235363 0.413015752736 1.26256975055
-2.46319861983 0.168053601629 2.69275632954
-2.412039334 -1.7967713805 2.72836331085
-4.04259003805 0.274614527762 0.713137387652
-2.67457084249 0.482590689042 0.692378067228
-4.26200931484 0.546082717074 3.78172698656
-2.67098393586 -0.00845431272163 1.8420418384
-2.67353893071 0.121790393698 2.00135823001
-0.549754459284 -1.33008733587 -0.607964561763
4.52906801247 -8.53496640728 -2.1370284562
-1.44257707337 -1.55989857697 -1.05611951803
1.1070347839 -1.03857554609 1.95581168087
1.10784976043 -1.36749359483 1.76258094374
1.13256924868 -2.16826773638 2.33037718886
-0.732552355186 -0.0755219112202 4.66597387946
-1.64281805038 0.150450869586 0.900385991581
-3.40076092351 -2.17713288474 -3.22656593473
-4.08208070197 -3.69438825928 0.81442305527
-1.77848882669 -1.55847178191 0.921204877597
0.893963081748 -1.40732690116 2.44824522108
-2.06964566889 -2.08625755788 1.95169601582
-1.62718682882 -1.85543380475 -0.856185994799
-0.893033201983 -2.50158750236 2.07996489425
-2.10502817108 -4.92257951031 1.80525589845
-0.388177981206 0.187541365362 -0.894983060353
-0.779186840137 0.0538909407993 0.76733281941
3.00269748703 -9.24824488422 1.94139199998
-1.54175054416 0.284006773341 4.6734995861
-0.27795552515 -0.909032422734 4.50244371571
1.31952920473 -0.762481872965 1.21745820831
-1.60772147857 0.166903690863 0.767161107255
0.551800878019 -0.850414301924 -1.89638095463
-4.19192775269 0.503854556209 0.669959028917
-2.66371004828 0.320098375623 1.41729575753
-2.67654576431 -0.0406997240587 1.27936298066
-3.95052539116 0.194506387697 2.65479870976
1.02468530065 -0.149976551182 3.06145268054
1.03481558443 -0.151301113258 2.12442585791
-1.78584799752 0.482969575766 4.69224353305
1.13361254453 -2.67032391351 4.81917946061
0.914716442448 0.652081301106 0.652767865557
-0.765035225458 0.154075905888 1.25836234483
1.05360983196 -0.715229114733 2.19524607023
1.04448787988 0.0512522554111 1.86911601859
1.04314955814 -0.357200701579 2.46984339513
-1.98174349287 -0.594289720058 -1.10606492759
1.10357728645 -0.0775793279622 2.80193878912
0.695703053579 -1.91516508398 0.0732954903557
0.460657134095 -0.989455356295 0.56045054229
-0.589792718589 -0.0478616983318 4.38779840941
0.123428281939 0.902361582084 5.95853895837
1.10306532412 -0.698825443052 2.1689224735
-0.719901939409 0.37479891843 2.18758214358
-1.81723352191 -0.0632627982353 0.775010583484
-1.53893655776 -0.0501699861328 0.776546828248
0.952582057758 0.440515566934 0.551420589929
-3.19329971102 -0.501815081336 -0.893475994171
-1.5879563561 0.352771313943 0.772301475148
0.961762098064 0.608279356809 0.986058352227
1.40980312953 -0.919937034952 1.20864140773
-0.625045420247 0.386384893363 2.5004311828
-0.976658619137 -1.6331206729 4.39489093236
1.1184908297 -0.172152133956 1.56453050073
-2.67070446672 0.1206576444 2.23087535428
1.32710322412 -0.422245951668 1.06990874158
1.34268779404 -1.32757836057 0.985651340089
-0.201057979216 0.702085598367 -0.946055834752
0.310114313896 -1.18304276085 4.38461559634
-2.69930612108 -0.0890259518044 -2.87741542776
0.713130666549 -1.41095457559 -1.677260273
0.910080367779 0.264769180679 0.525330541012
1.09921253134 -0.00837011094373 2.38155567428
-0.715553870011 0.130081061182 2.38220577665
1.07506624282 -0.0845992069079 2.11038745493
1.09815137428 -0.208611792291 2.62926422391
-0.0874082326415 0.684329483932 4.65209134872
-4.04829556118 0.732312364878 1.58668103082
-3.99896938158 -1.73338835244 1.5717000815
-2.45491236462 -0.162184266339 2.71338053454
-2.6780231489 0.388280592507 2.33641581717
-3.83880965071 0.435961671211 3.85085147884
1.30195596529 -0.41062248522 0.580137567198
0.121563756505 0.5606386549 -0.318716260551
-0.919643621121 -1.63714869545 4.74103163843
-0.116803628046 0.571055223831 4.68129912422
-1.46518220358 -4.30975750845 1.27354146431
-2.44070812785 0.583235279307 2.71004086598
-3.18939119934 -1.07738967074 3.74480629368
-1.08307638248 0.577411115501 -1.03013442542
-0.270097699674 -1.93785643349 4.61943858548
-3.74076891729 -0.818033006204 -0.909129303728
-0.276045980548 -0.943246711493 4.67760536015
-3.99667922444 0.1917020436 0.719926219829
-3.00517952822 -0.221796732278 -0.963835402023
0.590505467827 -1.36606297439 0.994682319251
0.903352774054 -1.12163876996 0.700264982206
0.912163077485 -0.0721464290694 1.55972300024
-0.592131603021 -1.30841935867 -3.02811207615
1.00532484055 -0.58943440594 2.96476061616
-2.08519847455 -0.143198090261 4.68775055418
-3.67274338914 -0.0179847324966 2.93795355236
0.666894834878 -8.79144893662 -1.86043561943
-0.640281036964 -0.190745289708 4.39039288323
1.16821427841 0.697907468219 4.55919007962
-2.83207244662 0.296550545198 -0.929420404248
-0.694207249914 -0.641700776024 1.01711126116
-0.50755751018 -3.42522572615 0.352217290947
-2.86013279725 -3.05905796978 2.00990195838
-4.53312873911 -1.92577515263 4.68060416042
-3.26070664215 -0.134604969395 -0.931902639773
-2.16953499176 -2.75167160047 -4.39212051623
-2.19323040785 -0.847319266498 4.68171258867
-0.632954410971 -0.00943781271514 1.01543421161
-2.05804890105 -0.841447180989 4.6744737503
-0.638025293226 0.168654383041 1.10058067954
-0.888864474589 -1.77376900801 4.71102988027
-1.4235546973 -1.18369195141 4.68908507706
-3.93114627841 -0.154104785865 2.71378853741
-2.13704294555 0.618047351036 -1.07397746107
-1.98240908474 0.705412285079 4.80405994469
1.32669812323 -0.713867950327 0.867675499115
1.31054054611 -1.15200238376 -0.135284577738
0.91293652532 0.609405503933 0.94536335286
0.904574373649 0.0109778826534 0.394869101285
-0.727973628918 -0.0705263168478 4.68186710842
0.859192366868 -1.60061785986 -0.547633717935
-0.512799666164 -0.72910672767 4.70445819042
-0.75985342533 0.0593738064575 1.58799090307
0.970988459917 0.346629208027 4.62100957933
-1.92299375035 0.298143666105 4.68591459044
-0.655034385421 0.285486547546 4.69176067697
-2.67913003139 0.558773081703 0.81887696093
-2.61668810439 -1.63028094829 -2.56751226222
-1.80406675145 0.796180961633 -1.66553172299
-3.48785401148 -1.42057063747 -0.238014633207
0.684116527815 0.166410965181 0.181760433752
-4.13529430133 -2.81991122134 2.64997809238
0.707433174027 0.165067867005 0.317532364658
2.24068975773 0.111534275521 0.582765510317
0.897323873679 0.654708020547 0.423745285534
0.813043301058 0.165053537019 0.0483174912652
-2.45359591567 0.209351991725 -0.951610425137
-2.66642079015 0.290368947751 1.90183632345
-4.37699151297 0.28469808168 1.64182575592
-2.67626387049 0.286048987108 1.12638701293
-2.95971994597 0.349207848778 -0.82748236709
-4.04254414281 0.0368229080679 2.23907723799
-1.71345323447 -1.41014785838 2.12101136569
-2.19029265636 -1.00788930413 4.71855952224
-0.765327763332 -0.094883939552 1.36543936739
-1.34986982658 -0.477596033571 4.71522418938
-0.765257444749 0.186079716437 1.47708456748
-1.62478448251 0.599365903179 2.69954859564
-0.179008726043 -3.61296958915 4.83200922232
-2.09872809763 -2.06529026179 -1.04938054861
-0.766984940173 0.349931795895 2.46461352696
1.04442842194 0.505703109623 2.01700667034
-1.02307086497 -1.1292030458 1.50155194295
1.33715378348 -1.64264296061 -0.0232501815412
0.859297961258 0.417732851735 -0.167003567467
-1.72408357894 -0.514499151439 -1.03196550264
0.759648778428 -1.41652885087 1.80944206571
-2.28562800901 -0.496651909237 -0.977983562911
-0.681820703075 -0.899606733143 4.48937487013
2.31600410249 0.725740633705 2.57808628525
1.22630952226 -0.284221443469 0.0889110526901
-2.0399933385 -0.156321816521 -0.977724433756
-0.62854387235 -0.529420321994 0.734918444027
-3.05727862359 0.231497801028 -0.897730097658
-2.98124338566 0.635278923455 -0.950822479403
-2.3679858986 0.488244320273 -0.961794823726
-3.22601974888 -0.00723038495356 -0.938549561371
-3.05407696833 0.364502655591 -0.942809517378
-2.62566223181 -0.211953860098 -0.962973372208
-2.56701140684 -0.201047567099 -0.964818369834
0.923033438363 -0.0749819826808 1.56553417314
0.915375776691 -0.0805307065974 1.56211546687
-1.82129432623 -0.992089638542 4.69543254209
0.916715414443 0.262400326781 1.25040146832
-3.99807276968 0.655150088239 1.49356973509
-0.733725331082 0.361970616939 1.25077834944
-1.91540015007 -0.00245167927275 4.69272025302
0.292316806197 0.704729579433 -0.608407994218
-2.00566982014 0.647253157674 -0.776778957602
1.00799120597 -0.819862360853 3.02815485936
-0.760162151762 0.0491981186078 1.75532797145
-1.78990040216 0.493144574852 4.68562815981
-3.90863971572 -0.196331934188 3.42433736041
-1.63111547332 -1.80174408841 4.742099546
-3.89900033498 0.276193171677 2.96947249764
0.96661696478 0.144641390088 0.188454514336
-1.74991249796 -3.3646086739 2.3241857977
-1.66072362246 -1.59601268782 2.07194090826
-0.62920051478 -1.26559933714 -3.21479373462
-0.696372553916 -1.07831218558 4.79683494677
-0.728676796112 -0.0764852909203 4.66241972438
-3.79136924424 0.622111042429 -0.543895594681
-4.00739349516 -1.0767375131 4.44182494244
-4.05014695438 0.355285013708 1.90939810801
-0.75448951993 0.512655882519 2.39435128308
-4.07861188236 -0.842747408463 1.263272616
-2.48606298955 -0.154632036237 -0.964409126853
-0.731172920893 0.563741707224 1.64317755792
0.725879093313 -1.20119724751 -2.17520066385
-3.22649703088 -0.76892678832 -0.965456831451
-4.06120091176 -0.224610634921 1.27699213847
-3.76313168624 0.644856764334 -0.826878316841
-4.03685405561 0.182908093687 1.37227517176
-0.581808439489 0.273007139257 4.64862266875
-0.549388415056 0.191134953663 4.64839509007
-0.978946344726 -0.795705131436 4.68113858395
-0.340926913896 -0.179345487544 4.56494783092
0.899403095392 0.303868018585 1.24543421878
0.896980739079 0.266814069059 1.10305845945
0.460060605476 -0.0380676989089 -0.576887394398
-3.98958774736 0.172919001837 4.04722222915
0.960229119421 0.569485538849 0.449958054447
1.36962250022 -0.850729368766 0.0499218958034
0.461122577296 0.59194665477 -0.575529659711
1.0978238057 0.646827071922 2.27500464568
1.08371138443 0.612532236123 2.10355789981
1.08062750475 0.446142994072 2.06408147483
0.963146022265 0.583547495123 0.887122246344
-0.782423883939 0.743449044027 0.770791124468
1.38352261955 -1.4761739081 0.539994850752
0.8940746706 -0.0552364135726 0.833284564742
-0.724304223927 0.164498339671 0.904419799791
1.46572203861 -2.16140492194 0.685877664417
-1.85263838749 0.202338458796 2.70476652252
-3.95506160637 -5.3221574044 -1.04803379405
-3.99467998154 0.708404201363 2.48742023297
1.08324659186 0.60479844556 2.2911240095
-3.39200114324 0.58359537903 4.67027951963
1.03390304945 0.719382370215 1.60254583763
-0.330219997983 0.641642613548 -0.669334295347
-2.67850645079 0.18110179433 1.68990781632
-0.695798102406 -0.43802535131 2.64068983492
-3.90591750844 -0.0120207939013 3.18585790811
-2.67032991712 0.245328726189 2.00844892549
-0.752833593572 0.16221422709 2.20466421532
-3.96223165556 -0.589717434406 3.7940383253
-1.7530715304 -1.80377075916 -0.949240420195
-1.71682357749 -2.1046481121 -0.923536115131
0.897326512597 0.635479591693 1.49771636758
0.509449002833 -0.707882627641 -0.799485389785
-2.96192448739 -0.795489313163 -0.734338376124
1.0407876591 0.181469152782 2.09149265393
-0.875528545894 -0.438156597279 4.44200772841
1.04039911736 0.188515194364 2.09253613727
-3.9334362835 -0.561449798246 3.13896599841
-0.738176980434 0.501685631966 4.70777440456
1.06496635337 -0.151838119415 3.91800403131
-3.9332482859 -2.14297492911 2.15558399209
1.22219413136 -1.74664311232 -0.785654797255
-3.00014960024 0.482659075373 -0.89589621023
2.60747345173 -4.15366463075 -1.24503405596
-1.16680552605 -1.19660083576 4.66639254481
0.913829991748 0.43981383991 0.657910942409
1.00262057466 0.109978096748 4.71553057682
0.909209894179 -1.60201836252 3.66984898021
-4.37973419626 0.297386096198 1.63497624206
-4.0087818277 0.865011184899 2.05403523245
-4.025491384 0.829754284171 2.17554695744
-2.63518245997 -1.8052055107 -0.758701968968
-2.62988825227 -0.86541495863 -0.887535990589
1.27011156354 -0.502950374596 -0.0224298065406
1.39916676826 -2.31467202632 1.13784228128
1.36354654161 -0.567002357851 0.79045494425
-3.91521232403 -0.257326969887 3.42205607771
-1.80383998195 -0.00215662884247 4.69441144869
-1.47087550226 -0.557926793768 4.7048770354
-1.4035973228 -0.3934770994 4.70872984422
-4.01612954849 -0.44383666409 3.71500585256
-0.635954369484 0.221364013446 1.87044419549
-1.6446858533 0.0791545289895 0.770166485543
-1.63857312734 0.144327447071 0.753087809925
-1.97929915452 0.0174386985629 0.771106813293
-1.98334502825 0.0826159024712 0.766137691732
-1.64545288836 0.473544095096 0.767892783048
0.900580754417 -0.0824738896161 0.951870896113
0.117414700598 0.69772704733 -0.615693422871
0.855824309801 0.722779703106 1.45344839976
-0.615178888459 0.871489968117 0.795207574504
-3.99389405956 -3.34256023327 1.81432087216
-1.41605700322 -1.52488953437 4.73494713563
-1.29054620539 -1.66580364102 4.74270253841
-4.0801400846 -3.34816377002 1.26442997631
-3.91269352099 -2.02738009606 1.50880828304
0.995519330283 -0.186863683556 1.68403333039
-1.86819376458 -1.85915611186 -0.86803250454
1.3353731797 -0.708642253736 0.579262071728
-1.83898891011 -4.4646756701 -6.80931829339
1.40094042042 -0.836025106673 1.23875369653
-1.0729004366 -1.80734417867 1.52948119278
-4.39565263052 0.688972132737 1.72901486648
-2.07788385114 -0.842210802672 4.63944388674
-3.11719389184 0.531245948598 -1.04415030494
-0.771422203625 -0.00481256194498 1.06348756645
-3.88488318015 0.568777024204 2.95384741441
-2.26641345805 0.467103433466 2.70944901513
-3.89631747716 0.374229044657 2.8320048302
-3.75681845568 -0.159062426461 -0.495943227466
-3.49905521758 -0.062838357369 4.680236076
-1.89752261544 -0.757677453407 4.54366594481
-3.91335424836 -0.24083159161 3.41887522133
-3.24992409509 -1.12391016392 4.78779328686
0.893221715751 0.325235097021 0.644477937402
0.981589229598 0.35116960357 2.82607184348
-3.97140117382 0.10137919081 2.66600802953
0.904797303079 0.616455886858 0.748869190134
-2.44309347518 0.200163684767 2.71645790564
1.36862455862 -1.79500710459 4.10311032504
-2.56573800882 0.427969834345 2.71681003264
-3.13407953877 -0.0702948381593 -0.948170025857
-3.89152183317 0.481164756154 3.16140551595
-2.17760685611 0.13978246048 0.766198893097
-3.73454958409 -0.129127339744 -0.448561898882
-3.03481667988 0.182634468562 -0.930470626991
-2.67896282633 0.118879635353 1.16616578441
-0.0582562620714 -0.142061614991 4.7595727502
-4.07357106534 -3.62476954977 13.4751722856
-0.199062764094 -0.717092791131 4.26387985361
1.08316686038 0.418046398525 1.83669684266
1.09841931256 -0.693760647868 2.18592800994
-0.725732664192 0.67859929646 2.35055545736
-3.18446053154 0.0347735521483 -3.32201922162
-1.39590256384 -0.543146309979 4.82323659042
-2.67770086402 0.0448726043359 1.09746164888
-4.02977472359 -0.859763837957 3.5766914514
0.952995695754 -0.749042036792 3.03403490418
-2.41941845623 0.429615785473 -0.94975346911
-2.98365570369 -0.154238139851 4.75109603689
-3.82850507965 0.754016002983 4.82278738962
-2.00375832026 0.620764134565 -0.929457146978
0.981245454987 0.270395979875 0.666963509724
-1.16183086826 0.13098352114 2.61990433458
-1.15555498996 0.263103769086 2.61527660256
-1.39070866282 0.000256652261816 2.62346557601
0.566590338337 -1.31250707162 4.59139261983
-3.92514486859 -0.999717476608 4.3909596743
1.06409900857 -1.21735117127 1.81404950705
-4.39867657544 -0.428047786705 2.68773573099
0.248323342436 -2.1100516427 4.935421971
-0.559815468868 -0.225682383477 -1.02423098173
-3.89456111705 -0.00151542625547 3.00007905604
1.02791958451 0.454068738786 2.26196831548
-1.73120072504 0.740041587566 4.69657018195
-1.63548664764 0.237488360709 4.693240328
-1.6917233084 0.198582492011 2.70179413389
0.420083512305 -1.77700217034 4.63227415023
-0.771514525499 0.247038573043 1.14535704479
-2.01061561277 -2.3084763205 -0.901553092298
0.912295307182 0.587607048887 0.108794892694
0.905530591792 -0.0355276189687 -0.0068150717615
-0.788752840163 -0.228730092369 4.67642741503
0.898574204918 0.280769498386 0.950977212889
1.32328331916 -0.35236163381 0.000332587811944
-1.1856626567 0.66588787867 0.784102467867
1.07598216305 -0.2021421689 1.69336867636
1.09919527655 0.355731115756 2.31983524663
-2.1494437357 -2.45210443659 2.41814406093
-0.693959141731 -0.135017406687 2.52730858261
0.90709193661 0.263369579587 0.135965771137
1.24702516958 -0.205797725089 1.21988166393
-1.27230936563 -2.63839124122 1.5611230489
-2.76209736026 -1.20799835006 -0.984360950358
-3.92985101482 -2.19901237384 1.14390354954
-2.13814004873 -2.8822039437 2.18778973433
-3.75857848694 -2.10490225428 2.34228501301
-2.05644092268 -0.205473912413 -0.965188743988
1.08238068532 -0.611172827459 1.62573865815
0.734406218461 -1.44644677949 -3.80119075153
-1.87914225173 -3.45639156885 2.46807536963
1.03993535578 -0.35091468773 1.82988414277
1.03837280134 -0.0691658381846 1.98855024792
1.03152143715 -0.970380851552 3.78805362886
1.07126071748 -1.30260908454 2.14300769441
1.0517680342 -0.715824630769 1.72293532107
-1.69162481783 -1.70464976329 -1.08595985103
-1.57934809969 -0.45497680892 4.65230689597
0.907411143382 0.00981492215036 0.367758549897
1.00308885425 -0.425134376602 3.32554570084
-3.8762763736 0.593734497616 2.94132316011
-3.77186088975 -0.0128750571142 -0.93274035817
-3.87146451395 0.156703638111 3.99877888922
-3.93266979932 -1.89965780302 1.15462093154
-1.21074477739 0.533928254137 4.66827839636
-4.07124847185 -0.185674091527 0.46419318921
2.99760024557 -1.85223752096 4.31825708688
-2.65693990773 -1.04721291625 -0.879860201188
-2.91916509166 -1.65739247912 -0.412405492687
1.13946435334 -0.715751242622 1.84359696676
-2.34538499643 0.242693531282 2.69040233273
-1.03509101916 0.536752174894 4.68477867244
-0.548356920667 0.190264839062 4.68096670774
-4.43443335201 -1.55926575881 3.28637891954
-3.87382294041 -2.66093894657 2.67080830628
-0.21628510349 -0.0658232853558 -0.806573401613
-0.433238040658 -1.00942920414 4.38258101149
0.883704646906 0.40963844636 0.122112602514
-0.850433342824 -1.01112736694 4.70185126852
-0.676361488925 0.518748112103 0.70671142543
0.839722114654 -0.834722864323 -0.368798199416
0.181501013374 0.477058782373 4.35424697228
1.33231278621 -1.15713659059 1.41014590775
-1.23802793014 -1.26799596683 -1.33030358281
1.23041268318 -0.809204593138 3.74225525624
-1.15678341584 -1.5847581753 2.42984333479
0.255410002385 0.186559347347 -0.72095983504
0.246566180502 -0.0625313909618 -0.682472381922
0.0783916196104 -0.138907494969 -0.785138943452
0.113826149312 0.27475838136 -0.72643732095
0.900137469552 -1.14836301527 -1.12401231556
0.558231861315 -0.950692829544 -0.635847926635
0.983687356802 -0.14176881859 -1.22109276881
-4.29974381944 -1.0112801332 -0.604876721332
0.162684515806 -0.275568443743 5.2408920062
-0.737535369957 0.239976451813 1.03015279598
0.892699286334 0.616089288582 1.55300689264
0.916982212293 0.00763281364185 0.852781257635
-0.653686924363 -1.66898679003 -1.68185171327
0.133825842882 -0.0022987103646 0.130687352783
-1.29353838996 -1.00510406737 2.73014995499
0.889663258386 0.577879902892 1.54846500351
-0.807949599168 -0.667864116119 -0.95045948934
0.814695625441 0.0354662358334 0.294833349519
0.334645778323 -1.17044254451 3.62096348954
-2.6637636425 -0.205047581384 4.6508765499
-0.992684664931 -2.10023397189 -1.63197135271
-2.02501045412 0.163825164765 2.70561938427
-4.06001839484 -0.580631731552 4.38112734362
0.107674244469 -0.207234297411 4.68991735362
-0.663057733299 -1.21574404328 4.58850901346
-0.707154896105 -1.57934873859 -2.53468390644
-4.28824177454 0.168442369133 4.11467351504
1.2943957358 -0.683843374064 0.883518401478
0.148714749884 -1.00841255075 4.72036951252
-1.44875202392 -0.571969734288 -0.968777607764
-1.74493626207 -1.22618993214 4.49982036365
-2.61977915037 -0.864526010891 -0.882795681362
-2.67260918783 0.116984977552 2.56528809427
-2.69666979816 -0.156597082005 -0.946117202966
-4.35421322101 0.519557057404 3.06254800843
1.09129427045 -0.178449114559 1.70461411864
0.268110404286 0.286288416938 4.81478879277
-1.21234096463 -0.832754151781 4.61418935451
-3.50389292742 -1.11061426758 -0.75836429819
-2.17183624405 0.251439585812 2.72503922311
-1.66694104124 -0.157701489579 2.69945610405
-1.51669704399 0.173039430359 2.69914210195
-4.02897638403 -0.0142712265932 2.38025163919
-4.03438882775 -0.0179769865657 2.2660254123
-4.03000931387 -0.679453368878 2.21370717257
-2.02484952971 0.131433652254 0.767269921658
-4.05516334535 0.146433515158 0.0252577870052
-4.03187389956 0.61319067702 4.04019387781
-1.36627060534 0.421147342655 4.59855126145
-2.14529454766 0.543649503723 4.68051920431
1.02694384595 0.360686096689 2.80043262897
-1.96805806873 -0.589775613712 -1.04892991592
-0.299590555975 0.727332958812 -0.836455967965
-2.68301162789 0.452038778468 -0.957925340968
-3.11646632242 0.561708217323 -0.924683693774
0.696945107765 -1.08712045812 -1.49728391116
1.05559991649 0.701844238462 4.74252465204
-0.137165383509 -4.38171065776 0.229699855994
0.979248569394 0.442604052788 0.994812610354
-1.23965136689 -1.77922359189 -1.01695939817
-2.60367718639 -0.713082846482 -0.97803071301
-0.585516713675 0.63710629355 0.375897139586
-1.67235219302 0.578926633536 -0.944721415875
0.737394121839 -0.937362936747 -0.83508773446
1.37534901906 -0.194435076416 1.63107610334
-1.85695866917 0.23533893375 4.68490766478
0.975743686244 -0.080803980935 1.63387634782
-2.76440780688 -0.108735082792 -3.07641987418
-0.385756149255 0.184652503095 -0.864359271004
-2.68194036605 -0.224613584501 2.23175171089
-1.8304088099 -1.54853459348 4.71331229985
1.11661780203 -1.89412716331 4.58615661293
0.65511694047 -1.77154587443 4.83460632766
1.40364748191 -0.317071566448 0.652414229325
0.457626021582 0.609831313655 -0.477066361471
1.33847623075 -1.58540066547 0.346183206764
1.33871513376 -0.68672169931 1.34770918784
-1.08348043009 0.160297552306 2.69615307481
-2.75555696091 -0.736124665952 4.7271658352
-2.91337758869 0.388518018777 4.71246381208
-0.779230655965 0.0973343088641 0.953637420458
0.890645666104 0.331336337311 1.47068462539
1.39182832148 -1.06609919058 4.7847393039
4.0228089617 -4.01757499049 1.80834763049
2.58719815176 -10.2441613664 1.58270827573
-2.89245761883 -0.817934021338 4.69696658771
-0.762917346851 0.359124723879 2.72618168063
-1.27990560619 -0.209348837604 4.67058706589
1.47239406558 -3.86744299703 1.69822460727
-3.12626065979 -0.0735024412236 -0.929519847709
-2.51276365804 -0.0524497037345 -0.886910379488
-2.76321976958 -0.600020153275 4.66987021662
-3.75291550962 -0.189098107764 -0.86855619547
0.237338777184 -1.5217108027 4.43281152182
1.08688569424 -0.60662646343 1.89800580956
-0.728035951044 0.169216588895 1.82276405484
-4.21064293678 0.51931949665 3.55153744523
-2.55795994052 0.147519607529 2.69432854133
-2.51250272765 -1.32650007314 2.6222382357
-4.07557720439 -0.665464623283 1.36864118822
-3.93558616074 -0.160976942533 2.67769460503
0.801913519011 0.534110928937 4.82788734467
-3.24214532078 -0.45728183077 -0.910858496208
-4.00658697141 -0.0297968832461 2.09261905687
1.09636494494 -1.00382781261 2.4558665581
1.09056912733 -0.802565971415 1.81912400992
-3.74688306327 -1.48745951285 0.910484093877
-1.40918740384 -1.88622250749 2.60077340182
0.942239300295 0.462912524737 0.655688544716
-4.14070259157 -0.859568174122 3.37723038428
-0.689736033963 0.259066375396 0.770108095631
-4.26486977624 -0.0908084774696 2.902118947
1.36006839319 -1.35767047936 0.163424333882
-1.12302437548 -1.02482515739 1.65574349369
-0.979245319716 0.725214129357 0.808007739789
0.936088187429 -0.0060143105443 0.743736694062
-1.02362483312 -1.07263912806 1.50591067961
-1.21936654543 -1.9403474349 1.57777993358
1.09859369009 -0.149256816116 2.49133834509
-0.719503235719 0.137442506405 2.44398279036
1.09905494628 -0.0213317478268 2.37835886056
-0.737739178123 0.436806754649 3.88429643248
-2.501089391 -0.214790499387 -0.969178094843
-0.7518796227 0.687760540239 2.66662787656
1.03670524044 -0.163582504051 3.59495984005
1.04216545991 -1.16380242582 3.15674288054
-2.67002591621 -0.141365092816 2.00931206325
-0.45981535457 -0.743572623027 4.6722294401
0.421678438503 0.641178689896 -0.68076147399
-0.764501909705 0.0948617868787 2.59960586671
-2.98489321978 -0.109252268771 4.58818585316
-0.794814539476 -1.32315044728 4.68875758527
1.08113447534 0.610849547555 1.9234754082
-0.760973569815 0.119206521379 1.90697268694
-0.757894577622 0.36640586534 2.28190141511
-0.777739227313 -0.463705373049 1.93664071953
-4.06082237392 -0.341474107756 0.378682253962
1.42877314696 -1.25329727017 -0.649297345515
1.48977249779 -0.7918398549 -0.0422778549074
-4.15233400975 0.500815045079 3.36797166087
-4.06236023512 -0.988353759331 3.63768729872
-3.77391996055 0.037928837094 -0.903426481542
0.121119691582 0.378263706806 4.68906526632
1.2802692456 -0.828944319329 0.215784433089
-1.90617198421 -0.976876781921 -0.993775258197
1.05985448144 -0.145113429089 3.96814977364
-4.13092819757 -0.292656733199 3.41582962467
-3.08262770532 0.219812074668 4.60527105162
-3.00217844477 -0.799141064811 -0.972415173368
0.897608614444 0.291536106743 -0.173100646339
0.828841060979 0.687380728085 0.522617939787
0.729162721421 0.026355076017 0.120926489951
0.963806046903 0.437053481949 0.985850543437
-4.37833438463 0.766124410437 1.59858231573
0.965288046848 0.441183253301 -0.079753082492
-3.97596946237 -3.60447852361 -0.866272120164
-3.90087136552 -1.10652393168 -0.907644338994
-2.86037973394 -0.810840239695 4.69416731094
0.866802497663 -0.717751928385 2.62361438447
3.21104497636 -7.97771137468 1.55707943228
1.91040327063 -6.52242939195 1.68091708995
-2.68240643447 0.355823216787 0.836949679296
-1.94539055082 -0.335394467243 4.68804922942
-3.85560449807 0.357181870176 3.20602454498
-3.37794981024 0.592620629132 4.68005066595
-2.16178373506 -0.184930083187 0.777065320155
0.072951185827 0.628629267807 -0.496546979244
1.38431549797 -0.316555373124 0.844928683889
-1.88049132903 0.0780079372452 0.771924910072
-2.17656411878 0.176470617379 0.760774194476
-3.75213426025 0.191007447273 -0.888064665182
-1.96446264088 -1.86807175304 4.74255788289
-1.40608582235 -1.4977764814 4.73850317995
-2.61513337313 0.632855365118 4.69484566452
-1.25723932466 -1.019238441 1.58327067997
-2.82612154468 -0.408917435459 4.70409649045
-0.715481323004 0.0934872225286 0.870098793423
-1.62536546406 0.407538921134 0.758107049721
-1.75820734273 0.208616700246 0.770986301803
-2.06772955161 0.664145796404 -0.84670048536
-3.80608229083 0.723217796949 -0.51675644228
-3.51850575117 -0.213722566169 -0.917246304376
-4.0001749551 0.711403177846 1.86486641804
-1.08242387945 0.682358817275 0.762411564419
-0.646747823195 -1.96953953159 1.4977102307
-2.04984988392 -5.93917750102 2.09045244847
0.922988458817 0.760634256369 0.432037309042
-1.32846872776 0.781128943168 2.69637708277
1.03771290254 0.00768443234844 2.5182555527
-1.17993210076 0.500487681922 2.69111557023
1.04731244369 0.592296459836 2.05185446587
1.0445982041 -0.78675487657 3.02336921907
-2.39936361002 -1.2025126409 -0.888805430782
-1.74280725212 -1.6965687614 2.46636566122
0.198422187288 -0.0607934355536 4.62177143216
3.21305049223 -3.38494899043 1.78187588831
-2.24867125845 0.278863559989 0.763648358359
1.33796938397 -1.12378719952 0.512225413525
-1.97450733611 -1.48738339966 2.00975115516
-2.0878741182 -0.0828557237422 -0.855013426647
-1.25662857658 -1.01251273598 1.58127094149
-2.37424069582 0.141295892149 0.758514307626
-2.35499964606 0.193142945798 -0.957465153863
-1.02149368161 -0.598147635482 4.56582834976
1.64266278515 -2.39417857257 4.90860224969
1.39561082162 -0.458856959532 1.16012066829
1.34929382344 -0.543753709693 -0.909014761335
-2.67622833713 -0.00996207003887 1.33624556621
0.859880034148 0.759962459539 1.0316377936
0.907041417608 0.310807770546 0.509584139981
-2.47662967051 -0.144232511681 -0.93687827831
-1.55077080735 0.734333161568 0.772725039601
-4.56117177952 0.580373225555 4.09538817877
0.947767545619 0.714819582918 0.976214524129
0.783727208956 -0.195443128859 -0.149197381001
0.97821468543 0.129052397898 0.566708016014
-0.544692011442 0.288999423085 4.41139884369
-0.0318573228856 0.523873475424 4.52787315546
0.21119433374 0.373917983678 4.599410975
-0.715715116986 0.426857069757 2.04383926765
1.09846677498 -0.152776851329 2.49341938216
-0.270516201602 -0.855210697959 4.72006790695
0.0410826664145 -1.02012456655 4.74183308622
-0.721452109014 -1.25852812518 4.72806754752
-0.100102283526 -0.845080883862 4.73043208618
-0.779043506751 0.227756348003 2.6894258793
-1.4348324108 0.312305869701 -1.02981793106
-4.62983402008 0.526148857146 3.05214674029
-2.14009850384 0.546126864264 -3.27543794304
-4.02221096529 -0.505872809295 2.62628956333
-3.87207901566 0.707535963207 4.74243005357
-2.34982585052 -1.72781976789 2.91554792735
-3.17514203426 -0.385460970161 -0.901696613288
-1.89329163515 -3.03159411481 3.3565492994
-3.95442190225 0.539354639108 -0.409231393613
-2.48031719667 -0.695911547171 1.06317329075
-3.67498337403 0.680815837474 -0.889028325022
-0.823963177859 -0.375756639755 2.59424414737
-0.830786880659 0.197465074308 2.60310120595
-1.26089434434 -0.0101871833872 2.63625878127
1.33832976721 -2.54678016948 0.435214676875
-0.0345543577192 0.546476103731 4.61111892865
-3.89168134885 0.510980414516 2.90675791309
-2.00690287318 -0.818710192178 4.68466427734
-3.75544517017 -1.78704389133 2.26862323081
-3.91631834168 -1.82591073441 1.24955888591
-3.92457292788 0.268671807837 2.65519412109
-0.779864842991 -0.505601842146 1.20124420639
0.899654361722 -0.0556164507497 1.15582552494
1.31288157488 -0.38922270534 1.13136502619
-3.8326868977 -1.911496127 1.2286208435
-0.83875432491 -1.36728464622 0.939302420619
-1.14707315202 0.546286221691 4.67316146062
-1.62667948696 -1.19951058751 4.71075856227
-1.60729725814 0.135278838224 2.63788341965
-4.09781189155 -0.604666485585 0.161011299794
-4.12437544173 -1.26112326675 0.352522155397
1.75064306813 -0.168287098846 2.8396529803
-4.08267274816 -0.16270776263 0.224698675608
0.862323031828 0.687033348305 -0.105475207119
-4.0576873831 0.123057045888 0.644520449645
-4.07133872654 0.204327426684 0.643877930782
-4.02475333981 0.089155621748 1.09228407469
0.745565141838 -7.51438186717 1.05298956942
-2.0071239704 0.69686616072 4.67839223385
-4.57578216032 -1.1957110443 2.2603918632
-0.722545956799 0.178480724991 1.17595142137
-4.05179550117 0.725079005698 1.582460306
1.44465607724 -0.319218044013 0.292083288989
-0.728897702925 0.226822987288 1.67226006948
1.37232905797 -0.221972273194 0.487487296437
-0.679763251862 0.494990020603 2.5169801356
0.898535445379 -0.0535955425305 0.233064944663
1.37146844513 -1.29196055932 0.362878309117
-1.3556709398 0.426888005237 4.66616036193
-0.76248842529 0.023521002139 0.802682019318
-2.16139826995 -0.620488002218 1.10051523097
1.10090281958 0.00681211366701 2.38251646538
1.11575945026 -0.763919000651 2.77407082792
-1.11423951927 -0.726761596737 4.674966816
-3.88436402832 0.308481343346 2.98765717639
-3.90238808611 0.0921212082825 3.18119260411
-4.0792257693 -1.65506238015 -0.305164957765
-4.05584164941 0.631315961966 1.84775201933
1.33349215381 -1.3295894818 0.657013803407
1.0951800477 0.335721096369 2.30862972146
-3.95563703688 -0.425494987971 2.67558287871
1.13160806578 -0.0242356590125 3.34545515551
1.05100889012 -0.0851839245652 3.62626718819
1.12234040062 -0.0247592870869 4.21846028264
-0.987323311355 -0.752333430913 4.65349378988
-2.74948058501 -0.0734401105588 4.68608408746
-1.7633304026 -0.0110516709859 4.6849232291
1.05791723475 -0.63089326563 0.414116643699
-3.95608414002 0.667008095682 1.68281753111
-3.96466520906 -0.469986961314 2.54997222073
0.672365109321 -0.66201188484 -0.917133992448
0.836201043562 -0.462848399581 -1.12200786343
-2.16170034133 -2.09016499713 4.72841658991
-2.50484701622 0.368807931686 4.69799907467
0.523360283621 -0.88984021423 -0.597859294957
0.986422115748 -0.140430524641 -1.22537628551
-1.66051816814 -0.0797625864434 4.6858811234
-2.08059874065 -0.137350811082 4.67574646941
-3.7707675913 -2.97424632552 0.937046243107
-1.11019647667 0.316432981908 2.69375387465
-3.0207601431 0.532467275033 5.05757959666
-4.05887405788 0.135001798968 0.233565728509
-2.66154965726 0.0287228574276 -0.946009294249
-1.9769740619 0.604449051758 -1.01649257866
-2.22246790367 -0.432143921929 -0.976677352151
-0.732653244179 -0.225022935934 1.75629207294
-1.62967171543 -0.857536621483 4.56746491232
0.492615413793 -0.631887037522 -0.650676818393
-1.04600603584 0.26747826982 0.77466798283
1.0178999612 -0.146285951063 0.417867966037
1.33040447538 -0.304395277797 0.546778766722
-4.13947177715 -1.12220322426 1.64451694047
-0.908289103486 0.355324184398 0.774208381626
-0.974775332032 0.024136007306 0.776747816479
-4.1723891237 -7.5362316102 -0.959083800542
0.87590302792 -0.0352040241406 -0.0430096115062
-1.8825653846 0.0842208349757 0.772849451871
1.26603012431 -1.10222257403 1.54774159617
0.908024428305 0.31512764002 0.22479584392
-4.29441688399 -0.696889589619 1.13495139729
-0.76589219591 0.120216011891 0.961429672225
-4.0283005758 0.0690534463873 0.133594827613
-1.89411123284 0.13653811276 2.64874240285
-0.805714730687 -5.36725009986 -0.875952393674
-2.67334221563 0.187212458101 2.34894242199
-2.32678018822 0.436883974232 4.70771706179
-0.655163975952 0.51829986194 0.680397726909
1.57895108401 0.159761967687 7.26377864176
-1.71637792043 -2.08222197199 5.83915577175
1.54469737834 -0.138378080042 7.27263396964
-0.763678275871 -0.10128200463 1.2984303462
