#.PCD v.7 - Point Cloud Data file format
VERSION .7
FIELDS x y z
SIZE 4 4 4
TYPE F F F
COUNT 1 1 1
WIDTH 1056
HEIGHT 1
VIEWPOINT 0 0 0 1 0 0 0
POINTS 1056
DATA ascii
-2.65283354209 0.0889640024275 3.45402633114
-2.03152497647 0.24133682549 2.62723351251
-2.41633115083 -0.242685537142 3.50794877467
-1.21816742741 0.632925710105 -1.78297535246
-4.28945855746 0.0427070262934 1.41026701434
-4.09434658479 -0.180337344765 1.95922845869
-1.06355409313 -0.118348105649 1.72190054661
-2.865851413 -0.359819890219 1.79410831634
-0.751879290597 0.328738306944 -1.40324275432
-2.46957583117 -0.582858763335 3.49881509597
-1.33042881527 -0.443855441958 3.71341471331
-2.3124015811 -0.240782828072 3.5313965688
-0.876044353372 -0.149914024441 3.82263609028
-2.64576129094 0.089064647486 3.44356181332
-2.67159737619 0.0932891108025 3.44018517954
0.764068162258 0.747326547637 0.457301345582
-0.796000859679 -0.10838690598 -1.48311941294
0.527798787967 0.643890525585 1.87802935781
-1.67185899643 -0.621417651011 3.65658857349
-2.80935740474 -0.236733048249 -1.97088301385
0.78108988251 -0.547861543977 1.1522857595
-2.82308230164 -0.35584538225 -1.97427621833
-1.24448629533 0.112978735044 1.14793130578
-1.27775401189 -0.764711347184 0.603285747101
-1.16943462997 0.156125821119 -1.81012349864
-2.53924470458 0.0116912775214 3.48004367058
0.242990942114 -0.262906921624 2.28093141926
-1.36602272482 -0.253782478063 4.00251302434
-4.06816640175 0.319313890789 2.02687766699
-0.666498365237 0.224022170461 -1.42054924181
-0.556285552696 0.234871013625 3.0384879484
-2.20303713936 -2.27464531585 3.73289818833
-1.73961478365 -0.108936401769 2.60294591017
0.710526892392 -0.120433158654 -0.37547978631
-3.45198093785 0.0293443033661 -1.32310574803
-4.67921883074 0.552708391923 0.287432397108
-3.18995944739 0.069215213889 3.34527551459
0.317770576988 -0.709623459885 -0.642713265331
-2.39154024763 -0.251692732437 3.51344064672
-1.3897006386 -0.00277396551524 3.72433412835
-1.81756836126 -0.203043858717 -0.641232337926
0.828100841566 0.224406766735 1.5732797127
-0.81245397378 0.192138445822 -1.43770994438
-1.05612388907 -0.113037913787 -0.246588818815
-2.39372353711 0.00713840866888 3.50683748053
-0.0388126849717 -0.172591435847 2.8412376753
-2.9945137234 -0.660432860487 -1.82040957241
0.35783687626 0.81788276423 2.23529668009
-4.09047045407 -0.191744134389 1.95621508109
0.778036001329 -0.11051718453 0.415702608907
-1.25685439191 -0.124291963349 0.6177089969
-1.39788539077 -0.122853571694 -0.643647411429
-3.75678677538 0.247995179398 2.50470255429
0.796151681831 -0.520829284717 -0.333191418183
-1.07626523748 -0.0506415862638 -0.619483236636
-0.5642153436 0.656769956564 3.01147884192
0.772016318904 0.387079342165 1.79138231977
-1.65000986115 -0.495669177824 2.60662190236
-1.3135783004 -0.208826439482 -0.709439189355
0.718961904758 0.199690341142 -0.237038150292
-3.59920966796 0.654836551848 -1.08733506013
-2.82888284088 0.174048311081 -2.01674171622
-1.37001660107 0.180758771117 -0.640993759345
0.218341164782 0.311789181175 -0.670800978562
-2.19454366692 -0.106246191456 3.5516807669
-1.52611946514 0.64455170173 -2.15998853087
-2.69615114764 -0.910708322848 0.722149977547
-3.72642461204 -3.56718823531 3.57560132947
0.0344584934752 0.622121018271 2.33522541862
-0.831587652325 -0.358429195638 1.61795641925
-4.11343151121 -1.88569922231 3.26719388155
0.137449835991 -0.261385440256 -0.772547042984
-2.45301633807 -0.460077935145 3.59658560107
-0.33959660897 -0.279012142476 -1.12397393625
-3.60918698419 0.697380976403 -1.25989168783
0.796599446883 -0.467232160108 1.01786836697
-1.89264281879 0.197948426229 3.68108839745
-1.82280472419 0.229543345753 2.60806286589
-1.96484815886 0.237578458856 2.61811923717
-1.06081427797 0.0796440407301 1.66581750362
-4.14343960461 -0.714672444817 -1.00266236048
-0.101793020519 0.329178740584 2.60155600531
-1.27045491195 -1.21440280702 0.945611139954
-2.92376077785 -1.10080472763 1.823311628
-2.24067256286 0.60530926664 -1.99362639811
-2.28698783891 -0.0892454833436 3.61488679899
-4.51940119984 0.280617120073 0.829934839759
-4.24752024224 -0.0128002521466 1.47732622278
-3.37129525194 0.656483341996 -1.23051255871
-1.0249994086 -0.419401153479 -0.304612697681
-1.70474028063 -0.336726052881 2.42891405319
-2.4479914903 -0.417304529189 3.48806758036
-0.95326926662 -0.0887475495037 -0.419841406953
-4.27046157727 0.308508447377 3.33516232516
0.602832378971 -0.12307511229 -0.427410373535
0.657250419352 0.36548903454 -0.23211448543
0.460547930256 0.727375479244 1.96453770485
0.932886285111 -0.185915283062 0.760078302127
-2.26391856729 -0.0725954611056 -2.04537281378
-3.61181534389 0.169845526755 3.24145892265
-3.34028724372 0.176900617073 3.309796036
-1.03392212478 0.134866785276 1.60181732898
-1.19377343493 -0.590559650582 -1.75125483162
-0.323907666443 -0.423099293613 -1.12007202658
-1.70451256953 0.201906387704 -2.09194161731
-2.3252111766 -0.476505004748 3.53779707506
-4.81968349534 -0.457937069962 0.281932276279
0.606836731144 -0.424987943584 -0.324200240645
-2.59692554321 0.30325853244 3.46376612994
-3.60255070155 0.51161353453 3.00691033173
-2.67180108672 -0.332830772232 3.45524298128
-1.27437624614 -1.2209580628 0.944864975374
-1.06606011275 0.418144164637 1.42646246379
-1.06080714558 0.113498156049 1.42628340056
-3.6469963536 -0.335028450499 3.0077855953
-0.906144431532 -0.117363955627 3.46260514386
-1.95258510686 -0.0872368016653 2.62255764008
-3.98170692557 0.512762126797 1.96704991579
-2.63996976285 0.598776758153 3.675373141
-4.54108779415 0.0204148217609 0.821299345969
-1.04559430316 -0.459996423019 -0.227523686679
-2.88341071101 -1.14809603737 3.18191289945
0.122329564235 -0.0383761029888 0.569598453336
-1.15041951717 0.732704604749 0.210257701948
-2.27789730757 -0.275146403645 3.59576109946
-3.31204452144 0.658498840324 -1.35293667777
0.821093081532 -0.159320028591 -0.214632325078
-1.16967383493 -1.0753478053 0.238971152084
-1.0536276307 -0.579639206809 -0.465533999312
-1.21466641051 -0.37453289687 -1.74123018262
-4.12955644804 -0.334762300524 -0.924936738701
-1.56254288667 0.363267466454 3.69124720126
-1.4268925993 0.686113991306 3.91378562098
-1.5175807823 0.306555760025 3.69388511371
-1.09637816842 0.0181467823535 -1.87049887176
-1.04086539508 -0.349723322939 -1.93506251434
-4.55645033011 -0.154428830845 0.825727809534
0.639474001427 -0.0910779786809 0.247950732783
-3.00358229778 -0.02778506152 -1.75819090756
-2.20829866651 -0.117741859933 3.54306171675
-1.10980470042 0.629650952292 -1.83315773956
-0.348766865148 -0.105926582297 -1.24714545401
-1.26750918824 -0.634712952741 1.03055625262
-0.18014858227 -0.420659648589 2.66302102601
-0.715333702598 0.151091780009 -1.26965731825
0.825445040786 0.347478228361 1.5663392956
-0.849610711006 0.0804632370348 -0.183833916542
-0.34101145205 0.330472553684 -1.6611834866
-3.67934533589 -0.673544815936 -1.17062551152
-2.86458660279 -0.211646192182 -1.91985551391
-0.336703268787 -0.402250091815 -1.30997640442
-1.18586545029 0.795321563628 0.209008215438
0.267496366498 -0.463509054992 2.25747104148
-2.182347269 0.599104498142 -2.08223357004
-4.05548320212 0.556087368103 1.93449817801
-2.89593734743 -0.704065119247 3.69498633364
-4.13340226308 -0.750826249879 1.99847249469
-0.853559525353 -0.0742883003005 -0.231421241053
-0.621344377808 -0.254974251682 -0.283234292755
-0.622631261033 -0.418843763189 -0.316367244994
0.710736576547 0.327842665097 0.813201806835
-2.52931627258 -4.54815601258 2.19944802601
-2.84113347999 -1.43341520392 2.293172683
-1.24961993828 -0.0864034728772 0.728775946014
-0.848579160866 0.335119029039 1.43044483229
0.649186311847 0.343016141914 1.83804997898
-0.315818985404 -0.139290391515 -1.11123243401
-0.859856877645 -0.127150754771 1.43826397355
-0.371421712197 0.205825831543 -1.22063686828
0.126399204342 -0.675977972835 -0.754101363508
-2.86919824053 -1.13279129651 3.45694446841
-3.36679402445 -0.279685506419 -1.90098063818
-1.06629508045 -0.10115253784 1.60128421412
-3.38576320621 -0.405770340008 -1.38451500448
-2.84340648509 -0.621207808359 -1.97386360295
-3.59934737674 0.145265819137 3.23873947776
-2.19804617591 0.31110150564 -2.06673454054
-2.13519597196 -0.484507254044 1.29040795401
-3.82896713078 0.286039005266 2.52934722563
-4.47397336337 0.0431291821634 -0.316690127611
0.525068169481 0.209985447106 -0.650624129248
0.796205041166 -0.47296208853 1.00046652197
-0.312844542522 -0.658125619397 -1.17788730799
0.370575834449 -0.791642228116 -1.55571717855
-2.85724451974 -0.40263226364 1.91120762751
0.0945764271296 -0.824616180383 -0.797977230327
0.278330297867 -0.269699400681 -0.550335974071
-1.19005541688 -0.302950241434 -1.84292140453
-2.05807675006 0.167722640812 2.62823256069
0.286830135984 -0.309650884592 -0.6387960507
-1.44401504244 0.178284346401 -1.85108782174
0.760791826357 -0.146391701341 0.362034458755
-3.85389891396 0.264116227376 -0.839086662828
-2.98794898254 0.385105393555 -1.67278267443
-3.44482812412 -0.209626505703 -1.91393345215
-2.46430376603 0.797715673955 0.229767431581
-2.54974402736 -0.0909652086638 0.330124413532
-0.870393176435 0.357041873476 -0.236940864574
-0.800708645226 -0.367260466957 -1.50111130683
-2.69474314187 -0.894139912776 0.719357066401
-1.32737759834 -0.2689501423 -2.06161686548
-0.831853079502 -0.404849980291 -1.66072134307
0.749980442693 0.111824605703 -0.323617319158
0.719874404003 0.751574517301 0.408463303348
-4.08209796473 0.200880910216 1.97087772531
0.763260161649 -0.400098435552 -0.348177905244
-2.62212284342 0.753551363806 2.35242814175
-2.60277498328 0.473510013962 2.26853248563
-2.8763348168 -0.374741100577 1.89875471752
0.407614025188 0.0445851378984 -0.506353522818
-4.48836752208 -0.411326372343 -0.325298161277
-1.66545300755 0.219279323767 -2.09542149879
-0.916009597121 0.348536122558 3.44020488788
-1.6528261894 -0.162501767138 3.66975515822
0.790305043325 0.674220568196 1.59049259932
-0.15681557668 0.218373839718 2.64870217327
-4.44766616715 0.284700796212 -0.288110719462
-2.20979944707 0.349685183708 -2.05284286888
0.262074260018 -0.276584793394 -0.363466718004
0.586722081125 -0.155413218401 -0.307277097171
-1.74267660481 0.234992895183 2.60388587153
-0.52081287413 0.273244852399 2.81025176174
-3.54704221259 0.258882431211 -1.22870956652
-2.69436866043 -0.0917706184859 0.725727877346
-4.52537136657 0.0697933535418 0.849528702139
-4.509962706 0.055459557825 0.844818308802
-4.50125883626 0.167516077204 0.84349074153
-1.94318995979 0.241242403093 2.61910314312
-1.45902078716 -1.01059398077 2.63914970025
-2.26703823296 0.102391439443 -2.03600327358
-1.06031825499 -0.467065569465 1.84281441155
-1.7408658295 -0.114841523662 2.60439774475
-1.9093498884 0.0121855137395 2.61758332304
-1.74565505643 -0.330900878129 2.60255941079
-4.5596293449 0.295666256743 -0.24016342627
0.594802971853 0.399713989147 -0.398114498427
-1.42986264975 -0.12092993958 -0.620739197576
-3.7239064619 -2.15262914016 3.57181176775
-1.85851395212 -0.365272319995 -0.530936929479
-2.13519131082 -0.0537612901637 -1.93546106082
-2.19752567712 0.00684904414616 3.54847652894
-0.850416212508 -0.871813389337 1.63732709513
-0.517267229823 -0.115491843736 3.12984277322
-3.8446928908 0.0871579760287 2.48711739028
0.459988642756 0.314851715358 1.93164141958
-1.06401340728 -0.138820045106 2.06304721323
-0.534237843488 -0.0472688306144 -0.275799925548
-0.266782168231 0.0621280337669 -0.975975293532
0.359644326834 -0.303223626912 -0.556603185012
0.373805247327 -0.297850056576 -0.345843136861
0.416206576841 -0.308205557752 -0.201222861841
-1.14412032543 0.425835750543 -0.492274393823
0.314283788586 -0.320756426437 -0.650569902051
-1.71636668741 -0.363709090995 -2.1754930632
-4.80352121845 -0.45261313983 0.21831530774
-1.64158490016 0.0525711052604 2.59769771074
-2.264930643 -1.12440218562 -0.746235745115
-0.34853767184 -0.330098289568 -1.25002858291
-0.346350372339 -0.447975661351 -1.41184073137
-1.09993680632 -0.461737417304 -0.449201037406
-4.75342246824 -0.689878340784 0.235414471569
-2.29941859702 -0.49148348755 -0.659574710756
0.796835943803 0.327314046115 0.588538429741
-2.22224219444 -0.457803938014 -2.11394547012
-1.33340550174 0.104818060722 -0.622860813415
-1.94228652659 0.243123982829 2.61893417513
-0.806338825586 0.114680064662 -1.45656597699
-3.45982451924 -0.3978284913 3.30569957042
-3.39259449923 -0.31401599334 -1.39877627637
-4.32688957579 -0.35379673159 1.41178660954
0.771948514478 -0.599017121864 -0.114218184361
0.344322484857 1.34554812165 -4.89704206746
-2.57964054682 -0.0213612907448 3.45655788994
0.796593472588 -0.179810189773 0.429529269669
-3.31510431062 0.260075718977 3.39821880341
-3.99478938972 0.514285739146 -0.754225178216
-1.1109642811 0.375061488695 -0.5325617592
-0.108623797743 0.688006747918 2.46048094275
-2.85359611516 -0.398626132784 2.03301679447
-1.96393993322 0.240903013081 2.62020337329
-2.43098276502 -0.0891077024249 3.51145566598
-2.57763175285 0.0573986916352 0.821628287444
-1.79034040082 -0.607996116036 -2.20835713649
0.690409855727 -0.245069276612 1.14524849942
0.27989878777 -0.44328083733 2.06600459585
-4.52653352789 0.141366410188 0.814986291005
-4.42785671675 0.559929314861 -0.293553350262
-1.38996625927 0.630503387984 3.81161427091
0.878890827791 0.415539384871 1.71761050567
-1.32488247231 -0.629751318703 4.09369434746
-2.47924484801 -4.35247122578 2.2591619999
-2.15440401587 0.0834595429685 2.32708083189
-4.48774013413 -0.347674033483 -0.300316817661
0.667908592944 -0.253583646891 1.11601180587
-4.47741085108 -0.565896425536 -0.325766909541
0.270766118585 -0.154751816031 1.91783129851
0.603194450651 0.293643223809 0.227350920559
-2.18699251541 0.638080271816 -2.06120356742
-4.75115797257 -0.0779220156161 0.308656675146
0.297532986912 -0.23149630713 2.8838799395
-3.87464723587 -0.157400782741 2.58896877487
-1.25154023637 0.117145900441 -1.79900886495
-1.68721383802 0.198639037658 -2.09776441866
-2.51909210108 -1.36829628406 2.22856986197
0.392861043608 -1.39450650959 -0.439021399168
-2.62235512915 -0.51798574588 3.71145707558
-3.73204491908 0.464741704222 3.00597412599
-2.71502760497 -1.57573689694 0.728462022767
-1.56726591558 0.71766214991 3.80295647967
-1.1918191707 -0.908109950094 -0.682835068652
0.740146298777 -0.283834435071 1.18776527425
0.748081664352 -0.176827560965 1.18941341339
-0.521940852352 0.356013892295 3.10469291196
-1.02144008582 0.39158924232 -0.0463025611003
-1.92524695866 0.157975948861 3.60897061407
-2.23920289393 0.192266424154 -2.01854420026
-1.93371617901 -0.0870199868192 2.61804528821
-2.52019629468 0.812717239375 -0.379748241514
-3.68394003395 -0.457272519198 3.1614430258
-1.76455747002 -0.29205741748 2.60388528239
-2.31455701858 -1.0057521269 3.3723542455
-3.06653719596 -0.744159973179 -1.73714049286
-4.27616278261 -0.335572756641 -0.822798200706
-2.22588771347 0.381612227822 -2.02686030906
-3.83287906176 -0.137314306953 2.51297462705
-2.58424365864 0.288311186888 3.46234966028
-2.73089146515 -0.172771595792 3.41749815911
-3.66836919233 0.694905240944 -1.08074487172
0.772144860802 0.351227060664 0.986845382387
0.826605309783 0.330508802872 1.56937465127
-0.992068193861 0.373488699759 3.58060447856
-1.40080524305 0.409818945897 4.00588405208
-1.27702507632 -0.085599405929 -1.7990337542
0.765848626339 -1.67671557612 -0.176146948496
-2.16452598837 -0.671831427753 -2.15619957563
-2.50445282884 -0.852335638732 -0.354657673793
-2.2408133026 -1.13581027137 -0.747414073065
-0.662884490566 -0.345718128037 -1.46005523601
-0.718727004417 0.620835066077 -1.40487375566
-2.12636621351 0.344929758808 2.49924032255
-4.03827851867 -0.628583753923 -0.660411860618
-4.56979193251 -0.500065415387 0.822157418351
-4.75238146451 0.0466612609514 0.276050536698
-1.0959051481 -0.361340447857 3.83200121708
-1.20242400355 0.685210988303 -0.630279110344
-4.4993290935 -0.48879616214 -0.314669181522
-1.51862560266 -0.332945962819 -2.05701211926
-1.25049030711 0.110586204453 0.695030681599
-2.82312275065 -0.284296895711 -2.01074434479
-4.28054700293 -0.389101308602 1.46348968237
-2.48438578527 0.783789455448 0.858868093987
-2.63259296003 -0.103245002373 0.819592519941
-4.05703134633 0.134738973933 1.96969025292
-2.12050843489 -0.0599445491325 2.63492705887
-0.925565829031 -0.430723302231 3.44245303986
-1.74102964922 -0.121767070473 2.60503568572
-1.80432143734 -0.0855542987445 3.62993906583
-1.84628270917 -0.73864350267 3.64002915311
-2.55934981547 -1.21004792176 -0.383135651518
-2.14769580421 -0.181168571085 -2.16512813553
0.531429704942 -0.303757178372 -0.466324754101
-1.11527164143 0.37078872982 3.66092432027
-2.71323768461 -1.23696219198 0.468106170212
-1.05786211095 -0.113721260109 1.77519115901
-1.07211314813 -0.458381892447 1.60226238009
-3.68859736887 -0.452904482381 -1.13678144731
-1.17357891726 -1.10656177345 0.270857757449
-1.18215838078 -1.83151271045 0.229506879438
-1.0669527524 -0.468931650492 1.77570253603
-4.42273645731 -0.679612954394 -0.350722346434
-4.04389903943 0.149462911184 1.96082824638
-1.07497285768 -0.77034807107 1.77582502229
-1.07001924009 -0.497584430703 1.83193194258
0.687190810399 -1.65809472546 -0.114537733074
-4.02842368088 -0.726275785248 -0.819629007476
0.260145544082 0.361857007811 2.22208498519
0.0776508575091 0.324542826736 2.41069579604
0.695020049093 0.540227795267 -0.301701676895
-2.17031196748 -0.482741578532 3.69803477677
0.516293868923 -0.122092349186 -0.467532133891
-0.799203883843 0.0744056484895 -1.45073607864
-4.50043578069 -0.703597991896 -0.294015319415
0.650365058082 0.331490259742 0.753583595196
0.203128374146 -0.100318935518 2.29296975908
0.131622251295 0.61828141373 -0.762631448582
-0.949669058391 -0.478873651467 3.57626284829
-2.80379533456 0.12087186548 -1.93968730321
-1.07206539098 -0.0965102213912 1.59785453798
-1.06264227546 -0.113327877942 1.66241865905
0.590476476892 0.352113717782 -0.357498299259
0.494030805117 -1.45037968455 -0.479797479422
-1.17070417573 0.334163755063 -1.80378236303
-3.60902667781 0.291389964131 3.00347633331
0.65113889872 -0.161000515467 -0.255613575658
-2.14109848616 -0.906739644627 1.28819528027
-2.12463637931 -0.160543331466 1.293137216
-1.25306219204 0.108078336391 0.697686770759
-1.06630789018 0.0937122497725 -0.0346023489962
-1.28146331265 -0.944949784267 0.603077654892
-1.07810214219 0.420952666943 4.00267646732
-1.8597388177 0.00492328604639 2.61439625875
-2.12641240993 -0.152482778836 2.62966851788
-1.06528130537 -0.108190654387 -0.376650101343
-1.80992727297 -0.171868793291 2.61469967215
-1.08681225036 -0.448800813713 1.90450819962
-0.220608646824 0.0760424986116 0.0304696670367
-2.58723099513 0.0995348305295 -0.471529413753
-3.24955613798 -0.540309975818 -1.86739469886
0.767716135157 -0.269561227841 0.361371390535
-3.58539739395 0.280218143672 2.98431582383
-2.78320869111 0.0793136682744 -1.94331759428
-2.17216165977 0.440353161268 3.5561689093
-1.35186054081 0.653557018912 -1.9924331849
-4.25529529752 -0.687662195877 -0.802405623017
-2.80875299648 0.360680569782 -1.91818902467
-1.05264144567 -0.445591498166 1.73591722092
-2.86875051051 -0.153411279406 3.41069979404
-1.99967970233 -0.653362458583 2.60375921334
-1.05381470243 0.436164027552 1.94342228236
-0.0913521426183 -0.249461380909 2.683740449
-3.92716808371 0.0260278066129 -0.886412473559
-3.83901649887 -0.0496902719731 -0.978569256608
-2.61955189433 -0.253857342712 2.27302470423
-1.0611909931 -0.765248455802 0.007092481391
-0.861819149945 -0.361600490314 -0.225997197273
-0.529083282829 0.40143138638 3.09537645716
0.748332803263 0.119063780543 -0.32507611493
0.247982025823 -0.367789010036 -0.805727418107
-2.24133789732 -0.0804164642404 -2.08392924073
-2.25103777804 -0.43856509682 -0.60637644001
-3.06279037111 -0.165752737641 -1.69099993664
0.0823708990491 0.358522717776 2.66258282534
-4.49312763286 -0.115525927352 -0.385787406512
-3.69347296837 -0.801140179186 3.18936547852
-3.63784149082 -0.474780096858 -1.15004652796
-3.61559196246 0.544426353321 3.1649094256
0.794181737915 -0.166199958479 0.528918785963
-1.66353905298 -0.276970956392 3.66153088905
-4.51798611899 -0.119975073627 -0.290337304865
-1.0573467017 -0.115999242288 1.7755523598
0.763711014409 0.824516275817 0.965424989117
-2.7567853974 -1.6191086017 2.17754535997
-2.46746207445 -0.189593988879 3.49207256155
-1.18863332834 -0.258677999394 -0.669436177808
-1.35246457091 -0.0905856845384 3.69608859037
-2.666298661 0.2576029144 -1.78583072879
-1.09276691788 -0.46057188611 -0.1879845754
-0.0909979848126 -0.105569573196 2.73942626336
-0.099199069087 0.341208794018 2.62067646638
-0.527706976594 0.241087430785 3.11152538557
-1.66771986911 -0.505664529374 2.61240884318
-3.82027082012 0.0430554317401 2.49920380579
0.800632447408 -0.571004733163 1.7945678102
-4.365953123 -0.25245468781 1.40960997866
-0.513280974908 -0.174081852391 3.14786960478
-3.42387154041 -0.361508677494 -1.90564929793
-0.857746798172 -0.598839941611 -0.224828499616
-1.17590438561 -0.309302922508 -1.74884721455
-1.39864575453 -0.186503153663 4.07470819532
-1.10725944439 -1.22401521205 3.52966436064
-0.810616052191 -0.144141010693 1.57363371368
-0.810290236322 -0.331087271383 1.45306931963
-4.66538185845 0.270312762003 0.275498851057
0.720973588249 -0.134447794723 0.358191186916
-2.69196613662 -0.0948669320908 3.44400621862
0.796852477921 -0.611789490759 -0.180219594591
-0.689715811423 0.319367353717 -1.40315327304
-4.43644925198 0.152790844739 -0.304208890963
-2.82090371866 -0.243425084762 -2.00487285831
-3.99662130766 -0.000690835261971 -0.82922095256
-2.24729810103 0.166336654312 -2.0224780357
-4.27784341118 -0.413426448169 -0.858923579852
-4.70303489016 0.134404909438 0.250452682941
-2.26708247433 -0.378341351212 -2.05227412553
-2.65229591918 0.0907768157707 3.45708631148
-2.71879947209 -2.40113658673 -0.230870512781
-4.65076188631 0.285128917551 0.25950299405
-4.5363293465 0.58763071339 0.872017581728
-2.85204041534 0.378622585121 2.24818663341
0.108956138778 0.162826137197 -0.744768290398
-2.80572824125 -0.147027517633 3.41506041566
-2.64554951143 -1.45612869421 0.335839732714
-2.65833173764 0.0500188399684 2.27923988155
-0.941004372126 -0.163896884627 3.57853273357
-1.47154395277 -0.232630804375 4.00066472462
-1.35753443534 0.750799927073 -0.53935413344
-2.83627595423 -1.3686593629 2.13839037624
-0.736587028784 -0.698593962192 -1.47073561039
-4.27259229063 0.155887887188 1.40615279269
-2.94937776902 -0.0687578857351 3.38737361737
-2.21017474985 -0.119736488258 3.54451696115
-4.48275628966 -0.49145775897 -0.28119976163
-1.04847320005 0.401648477718 1.59802573709
0.795720964206 -0.180380394101 -0.171185752675
-0.497046335504 -0.159833812504 3.06394677659
0.296850530121 0.162739070883 -0.602500756252
-1.01250443924 -0.0526334956601 0.727695079044
-4.01534722184 0.152487038823 1.95829220387
-4.71870848738 0.28353480421 0.277472471987
0.692899065751 0.237784153827 1.20462798879
-1.27227470888 0.339142265763 3.74007886383
0.709797878352 -0.263412375533 -0.0322726250028
-0.232193668458 -0.388120956384 -1.10076813086
-1.05311007661 0.427456888035 1.82140933077
-1.0571632032 0.111226718421 1.42478339275
-1.20357703739 -0.346337320515 -1.82975860457
-1.04984843303 -0.105602408304 0.00992414500565
-3.68136739185 -0.49707800766 -1.15471346309
-1.0365486163 0.116913528263 1.93610740701
-2.20007502633 -0.659909622251 -2.11990410093
-0.10435154972 0.250849611866 2.75140251783
-1.25851424436 -0.622880962964 0.712266685213
-1.04547867883 -0.1156919118 1.99748644186
-1.03998656932 -0.485777774828 1.92705111452
-0.821823949235 0.189153301354 -1.46481495332
-3.5891727863 0.029169960052 -1.2023785659
0.223062785499 0.311099189617 2.26440881755
-4.48634816365 -0.334951920446 -0.319532470886
-0.8714499849 -0.301468353036 -0.489666210001
-3.57131989345 0.684831700613 -1.10515465893
-1.15046856214 0.637271126322 -1.80801717156
-3.36260684408 0.601089518196 -1.23172821244
-4.2402388643 0.0423967512777 -0.843524476931
-1.18842703649 -1.53835126277 0.294361064628
-1.04488040349 0.413891092471 -1.8393313781
-3.31925728674 0.626117993291 -1.3384376156
-1.05016406083 -0.75668501012 -0.100583774776
-1.05175501569 -0.126300336153 1.76751826845
-1.06035526327 -0.766606866048 -0.0458545766321
0.341470013318 -1.33671345045 -0.609364098579
-3.69109090457 -0.768480811953 3.09737377791
-1.07368210241 -1.21471764778 1.70988766435
-0.522123752597 0.320233545425 3.00490589351
-2.16838304422 -0.502291588707 2.63980589651
0.81998574816 -0.161748119244 1.14797514624
-0.14956237058 0.293814319085 2.6472347205
0.78012274597 -0.219925152059 0.35979830183
0.587256863794 -0.718998446293 -0.339823770498
-1.03589786682 -1.01978440867 1.83017763951
-1.74023730776 -0.0968240785094 2.60857010228
-3.61426938225 0.187669939039 2.98929884021
0.719761268584 0.592044147912 -0.498250160266
-0.252437763748 -0.2158697194 2.69925901524
-0.849096266819 -0.343476785211 -0.321300781373
-2.26654655347 0.0018881952299 3.53556421105
0.819283126926 -0.167173335407 1.14642724219
-2.11385330978 0.265703038886 2.63224123045
-2.28493314123 -0.348538985955 -2.06778151186
-3.06195840834 -0.752405245511 -1.7303423211
-0.79713553296 -0.353782711716 0.0015809862516
-2.20805948569 -0.0744772272453 3.5465268304
0.773298114156 -0.521424161744 0.961551216362
-0.529782722588 -0.214381308705 3.0557413407
-0.918089702062 -0.613382971967 -0.362826972442
0.826985784405 0.300303311315 1.58498522576
-1.06753499913 -0.0567890016226 1.01652978858
-2.85490504985 0.149224539422 -1.9728053729
-1.26265829377 0.108149565618 -1.80371790831
-3.62666007353 0.203820148455 3.1863668733
-2.58484238288 -1.13826150794 0.812741198509
-0.790164021387 -0.295156583834 -1.46960156708
-1.09238710253 -0.114669071309 -0.416905991997
-1.17682072643 0.451199391585 -0.385475758452
-4.34614912821 0.338468664427 1.45609806578
-2.2829844434 -0.320087747135 -2.06523890703
-1.69815001689 0.126929527639 -2.12514790411
-2.25488015909 -0.302527016099 -2.07648103427
-2.8421510856 -0.286986259322 -1.97230185834
-1.85685520652 -0.295515353229 -0.638576745471
-3.37708216308 -0.496853735773 -1.41464215247
-3.0646219522 0.0445204958779 -1.68398580765
-2.85510237755 0.380202447821 3.38152456855
-2.21936003673 0.54858461344 3.44228151169
-2.85955568434 -0.397280193881 1.69272312977
-0.343536335581 -0.116681549574 -1.12533554162
0.802476762395 -0.620738287252 -0.186362039488
-1.63493365209 0.212070127096 -2.11300691108
0.744313024937 -0.139539227451 0.823305962791
-1.65581273425 0.622486652389 -2.07777600491
-1.63214240203 0.337336908502 -2.09695277242
-3.71626093299 0.192500055371 3.20453167405
0.272764668813 0.232871003951 2.22826649979
-2.97173724896 0.598889354776 -1.72695283315
-0.654707053168 0.071224466157 -0.295427992567
-4.0528207203 0.570587206097 1.93329343453
-0.288186814591 -0.085980481316 -1.04273514562
0.204306401559 0.405500273057 2.42498665335
-1.18507885844 -0.830750910379 -0.500236042095
-1.78979835728 -0.217815872367 2.60392882769
-2.86458150357 -0.556818235756 1.69143321756
-2.99365519457 0.564656719924 -1.66697349405
-2.32034005882 -0.238621578849 3.52656270189
-0.874548523417 -0.355822172522 -0.363882805082
-0.832717371873 -0.0645128979379 -0.365265336194
-0.883439012887 -0.0732194594557 3.44263385117
0.591165044594 -0.423447060787 -0.429432524061
0.0895607543695 -0.36936270681 -0.797703144903
-4.49614379318 0.174368453875 0.8462366736
-1.81957953865 -0.157285038301 2.61225630276
-1.99476436707 -2.0044820948 3.87551314504
-1.35535986196 -0.0347851577425 -0.611030433111
-0.360480677279 -0.301650512099 -1.22648795483
0.973928543571 0.20160032752 -0.3037312324
-2.28977702939 -0.48228230379 -0.672286365899
-1.43346587295 0.484013222568 -0.607829437506
-1.35631513149 0.215139274471 -0.632003259646
-1.06382274151 -0.0980346774026 -0.147725601041
-4.71268585442 0.315264843186 0.274600595621
-1.34371252582 0.339829567934 3.69558785998
-1.07190916518 -0.500065760874 1.94701333124
-1.70822213433 -0.357300995515 2.60247239306
-2.62245616875 -1.34810841198 -0.364199732002
-4.4812929594 0.301770600321 0.829586102639
-1.68990587465 -0.610592425879 -2.13658462743
-2.13508876153 -0.721336929254 1.2899075684
-2.70113433671 -0.767693654452 3.47996922374
-1.84570674876 -0.0838190380513 2.61067733363
0.654114440582 0.217280800898 1.24134684385
-1.9332699631 -0.165134851297 3.60661586744
-1.39130736488 -0.500864873531 4.05305123666
-1.09659204308 -1.36805971029 1.77275433801
-0.839777044769 0.0628317430133 -1.63186931624
0.553864694401 -0.34829285086 0.558366182501
-0.945700093841 -0.367651438715 -1.91549040391
-0.359963255631 -0.164423380781 -1.244577253
-1.05200584983 -0.385624223303 -0.572274543132
-4.46292072464 0.0401745900328 -0.291602590384
-0.854961505978 -0.583110499734 -0.0837572371727
-1.56587332824 0.675290237079 4.15344860808
-1.15310901242 -0.680320692074 -1.83211071657
-0.702494772528 0.405236243217 -1.42984574956
0.730012770579 -0.504151696878 1.20954210724
-2.70554774848 -0.102524049191 0.456519191329
-1.07492357164 -0.803299275772 2.01245616605
-1.03281551082 -1.02404011277 1.59464327311
-1.42376996563 0.710117342518 -0.617183080108
-1.09991699556 -1.37042057113 1.71619947564
-0.696802845106 -0.533112982761 1.26991099377
-3.60566359963 0.557214832251 3.0306201267
-2.19633611451 -0.344211298116 3.5474119271
0.693501186411 -0.452412054629 0.322416462989
-1.06495085252 -0.48612629094 2.00852125445
-0.254499056687 0.0791219747757 -0.978675403734
-1.93013584394 -0.793070457138 3.62615368031
-1.69960616316 -0.113381075984 2.60424205355
-2.47610252837 -1.34389209099 2.3159483743
-2.23806620289 -0.356505857803 -2.02077800602
-0.869112888408 -0.892508736234 1.54987173926
-1.91311406298 0.644256561229 2.64769682944
-4.46383671407 0.552197722542 0.841168058364
-0.0821633345749 -0.161522933147 2.6974284908
-0.356337146418 0.104363951206 -1.11334388165
0.856872944183 -1.70916374712 -0.371433545043
-2.13223829739 -0.372309165918 1.29115520728
0.106691830312 -0.416729732446 -0.782768479067
-3.64960017874 0.119585506827 3.02011899474
-1.43601864878 -0.135906393346 -0.618892392778
-1.06205876343 -0.108005454356 1.71685779781
-0.78835998657 -0.263536579732 -1.46905564826
-3.17106890963 0.0672134504532 3.34127168402
-4.7163386191 0.0466485053341 0.262040499288
-2.96863572214 0.589060235728 -1.75890165472
0.849127862124 -0.494751328168 0.486812887813
0.785840121416 0.138835665963 -0.165762838956
0.698096673731 0.118497006362 -0.0327485129904
-2.2309226811 -0.0232226648638 -1.99267220216
-2.89190177845 -0.555698462654 1.67755347868
0.709614649652 -0.568151340558 0.557531988446
-0.616903796165 0.160589003954 -1.24208966943
-2.52298302392 -0.367938880259 -0.473443797927
-2.95429379531 -0.0642017155054 3.38853423489
-0.0937230876182 -0.158721439053 2.79406046016
-1.33272958338 0.116233002588 -0.625614841682
-1.3431099155 0.210811331869 -0.624736726511
-1.82085099222 0.629670359021 -2.46003258424
-1.81015338185 0.302511900849 -2.47655797194
0.626425129653 0.287922224275 -0.369829056821
-1.0500999953 0.43695175627 2.00876537928
0.806298815486 -0.194126619113 0.444202291439
0.702422435565 0.247928763176 -0.269685362344
-1.34790495341 0.220190067024 -0.62592767129
-2.55847529534 0.0371334113351 3.74172531304
-1.07758588633 0.395329638971 -0.0654797451766
-1.01564756234 -0.724109609326 0.0672795464063
0.167883013484 0.215807113366 2.28567600277
-1.05728811585 -0.104145752578 1.94694037931
-2.68052383168 -0.140451154616 0.469135247408
-3.34853781211 -0.431331757444 -1.48315455272
-4.47804394997 0.565379500467 0.79203211291
0.748178486841 0.234304447883 0.404923555892
-4.47934784085 -0.673825911615 0.723759643332
-1.27571586685 0.117220513386 -1.79593418674
0.586326211821 -0.784788168759 -0.372211945433
0.0385041297497 -0.0631221738312 -0.175067551649
-3.91351795209 -0.764021933238 2.56589133964
-0.585322387051 0.300503437303 3.03932651543
-3.80651749273 -0.419999677119 2.52675091985
-2.47956115604 -0.268415588395 3.57779602483
-1.09686172792 0.119499810131 -0.269378951437
-0.0419595540121 -0.154688786603 2.64690202085
-1.01876681124 -0.107487757962 1.79816115453
-1.24413074642 0.113469942676 0.81632588723
-2.13048249376 -0.185281638216 1.29355140444
-1.64593167237 0.34092223222 -2.08352141445
-1.22173764943 -0.261815771247 -0.674061560096
-1.26378420912 0.136498760528 0.237135095365
-1.06716666352 0.0919574798233 -0.099735393104
-2.97686687118 0.58456033556 -1.75537052407
-1.03602298849 -1.21705011857 3.19391196069
-1.75948475301 -0.156531740363 2.60629440613
-3.69456440695 -0.477481286133 -1.11513612528
-1.69659357593 -0.343116657177 2.42787752916
0.0848453807681 -0.141253133098 2.36921350508
-2.23436816922 -0.404881997302 -0.728708939269
-1.25792956722 0.570344905817 -1.75464664799
0.33542123019 0.32679349678 2.14041766234
0.628063592688 -0.125051436104 1.6553130169
-1.71842979766 -1.17955233439 -2.15147791235
-1.07861049859 -0.787204750265 1.83024650982
-1.08547216518 -1.46758282645 2.00233951798
0.811285663535 -0.462286823146 1.50911532622
-4.49076843917 0.162254546033 0.836005310971
-0.959893070486 -0.417790955048 -0.272709620174
-0.965653564696 -0.426380818168 -0.379709537132
-2.98318301498 0.571472342433 -1.69204698558
-1.25413115133 0.129031499094 -1.84367907315
-1.07610349054 -0.466592395065 1.59995698068
-2.08492393497 -1.8412483377 3.89602080034
-3.66644373148 -1.58862049555 3.03254655929
-1.71626129052 -0.345197691742 2.60212994302
-2.80755551862 -0.42550694411 -2.01257278455
-0.798785615378 0.121962851723 -1.46238009031
0.176489417757 -0.139235833129 2.31059360942
-0.959755897557 -0.0956615999626 -0.102339824233
-1.2561723732 -0.981637473847 0.227436997266
-3.86962175119 0.108023644512 2.54087108754
-3.61545883321 0.269348441551 3.0148293468
-1.1835930301 0.226188682252 -0.672760756489
-0.992825565622 0.363422450768 3.55794874176
-0.790297365052 0.337942487448 1.30850300051
-2.4165468499 -0.244702102559 3.50802396032
-4.52821837275 0.142678505211 0.845822217256
-2.00693607639 -0.0351892796084 3.58754679392
-2.21000016656 0.219386124403 -2.06039516113
-4.04713427045 -0.67756495766 2.01031146831
-2.85356365336 -1.5081033256 -0.527795823291
-1.72931895386 -0.00555797032812 2.60488470492
-0.235084264106 -0.568420130259 -0.939794818831
-2.85699636638 -1.70069771983 -0.454037014552
-3.90926579029 -0.396085841269 2.56249406094
-2.6094666027 0.0503587657584 2.2645928897
-2.07231049546 -0.0833097537023 2.62666008552
-1.26207305488 -0.0924075519542 -1.81376414522
-1.07955993159 -0.554931407589 -0.0294809564819
-0.589066764155 -0.410545664537 -0.250898685138
-0.937804638332 -0.229856566966 3.53537995117
-0.929077026771 -0.140849631369 3.55053520821
-4.0811735735 0.0366506352584 1.93869769891
-6.74251912807 -0.554545338572 0.659554484199
-2.85579595671 -0.277103830772 -2.00573033772
-3.17208218723 -0.59369722083 -1.82599723084
-3.82247867757 -0.301397253679 2.51562586136
-3.59794662015 0.141721164419 3.1832679349
-1.0164367596 -0.412636955992 1.89888761956
-0.863275149023 -0.0785666330037 -0.368137452925
-4.46684839833 0.0980118793885 -0.30423803812
-2.36121456278 -0.256798233801 3.51273907471
0.602410266575 0.106751022051 -0.371603122901
-4.50817736126 -0.43263140884 -0.312094511026
-2.25012410398 -0.24631059158 -2.07374134921
-3.74355343331 -0.412049024843 2.54525824301
-1.58670959948 -0.189276926596 -2.20069203855
-2.25747868623 -0.97784511602 -0.765460676941
0.762769661187 -0.127515196384 1.16905009728
-2.48429226944 0.253054473006 -2.33696498357
-2.35170657894 0.632397873291 3.56363171402
-0.863394895854 -0.368634061534 -0.22432344932
-3.31271622456 0.0282963444339 -1.43660418738
0.509165116415 -0.28149043219 -0.468977936134
-2.2540894941 0.118458129047 -2.03009053756
-4.51166142962 -0.699656482205 -0.34081995432
-2.87084097561 -1.26600048329 3.38619408466
-4.53072891665 0.0367818992051 0.817997759217
-1.28276290598 -0.771395703096 0.602598169157
-3.20893191798 -0.414930328334 3.39012361859
0.581626314113 0.653743726335 1.27642486718
-0.781762930277 -0.106479695385 -1.4700673989
-2.55904934229 0.747707242072 -0.276110476485
-2.54670463734 -0.100294314332 0.344707682597
-0.0700488454681 0.362888614436 2.74404574049
-1.24644896304 -0.272622662744 -1.81326544317
-2.62422851784 -0.513991811772 2.27364228369
-1.0576536358 -0.0868871751309 1.94413025205
-1.05233054887 -0.0682327463695 2.01977138484
-1.43505853716 -0.0795640499057 -0.642752506787
-2.42358796686 -0.115268179441 3.50583747053
-1.05591633751 0.091244344319 1.82909877151
-2.24983023595 -0.450318661108 3.5470445447
-3.99424763436 0.506049576756 -0.749769744419
-0.85257549559 -0.0909902472149 -0.183345381778
-4.13100152467 -0.230727731826 2.04621990562
-1.06947059928 -0.49320640422 1.94385053004
-0.50762061304 0.353004832975 3.01779588421
-1.28166710698 -0.706586430296 1.22463271767
-1.06420321962 0.431760675215 1.659492785
-1.05637893773 0.418267054236 1.77757085523
0.518264148305 -0.116652785465 -0.468094659272
-1.03941807527 0.0899511152375 1.94542995494
-2.23868605346 0.323688059859 -1.97814230991
-2.16476600895 0.0578136909301 2.59184716665
-3.0791419187 0.23394929386 3.6246243569
-4.25620697952 0.0039403522405 1.45249550763
-0.0933043615522 -0.504812795288 2.71550766359
-3.84887424195 -0.0909309142759 -0.97245111399
-3.98493186158 0.0595604054102 -0.837192176277
-4.11325148247 -0.0195715400319 1.98834790553
-0.317366737219 -0.147932773488 3.0165040129
-2.12892850398 0.103214809968 1.21239771141
-3.09413513837 -0.34416320365 3.35488215346
-0.379829072315 0.319123758967 -1.18875357737
-2.48864041056 -0.813738793468 -0.0962282739369
-1.64652737396 0.584372479119 -2.04281924572
-1.06779885037 -1.18512448575 1.58358238144
-4.50577119223 0.509953646851 0.790960104508
-4.12650238266 -0.108872018048 1.8977285925
-2.71582646706 -0.972915644779 0.680073135447
-4.61616677098 0.219306302571 0.881934538997
-3.87062151545 0.0848576990982 2.57365971879
-2.12828900033 0.157734170542 3.56336488565
-1.14660608012 0.297619596616 -1.81932266824
0.658425950729 -1.73929683642 -0.383211019732
-4.50830284317 -0.365801691098 -0.307484286619
-3.01320470278 0.103461218464 -1.72791408875
-0.837795248775 -0.455735313142 3.4747458982
-2.89374961647 0.0837402368299 3.4049697956
-1.28001127619 -0.765182582758 0.618792710107
-3.63125639124 0.137445569459 3.01254509606
-3.14395843554 0.249549275286 3.33389874097
-2.90128514748 0.466635051549 -1.98126100244
-2.07414345024 -0.106386234423 3.56875655051
-1.1904076575 -0.554447299481 -1.67950131813
-3.86038227823 -0.0785717857979 2.65960006687
-2.20170835383 -0.517325984753 2.63133183512
-1.8046949453 -0.0887110960362 3.63026736594
-4.0115729084 0.7819618752 2.67489965906
-2.9449609395 -0.530474935929 3.45894818947
-2.61738082278 -0.252684110943 2.26464098542
-3.85542360664 -0.375480498376 2.50836033977
-0.21493219944 0.626883796929 -1.05530833946
-0.877486304332 -0.373613896367 -0.414000393424
-1.67653469647 -0.360713291913 2.61180094172
-0.734588643426 0.0780234142152 -1.43340050089
0.146519556438 0.0567877383125 -0.798933211119
-2.60955741708 -0.0807754358943 0.350239361256
-0.33206904198 0.0697100427265 -1.10517038811
-4.04894465832 -0.121474992387 -0.780964356281
-2.16830109835 0.394424569191 3.5349490258
-1.05039115348 0.0359217844612 2.04018673708
-0.880054289128 -0.117824937682 3.46378474379
-0.851882963745 0.643218903555 -1.56986981689
-2.14286399341 0.449647298498 -2.0767806247
-0.802372605913 0.334184473624 1.34505644755
0.77553581355 -0.151237932399 1.1724866221
-2.78547504869 -0.265803529167 -1.97442231889
0.272186211726 0.238857278389 2.22751976027
-2.78126274049 -0.691130348397 3.67875970773
0.764277691679 0.305932671121 0.930943904447
-4.52701501756 0.0845976173026 0.847805338427
1.40229438236 0.430690764995 1.16291799107
-1.053843404 0.0937374991178 1.94556546776
0.862690004737 -1.66117816125 -0.184382240369
-3.2866023605 -0.457030495567 -1.39844810093
-3.28227992039 -0.548012690469 -1.86954759784
-0.966553279818 0.779194282544 -3.77978118746
-1.05413848171 -0.555822577225 3.94193122799
0.80412387333 0.7037129089 1.03870131884
-2.8561284531 -0.571048482141 -1.73044892207
-0.846195448012 -0.0696602768273 -0.0848602936532
-1.05662779751 -0.0997272340501 1.95182560488
-1.05234927209 -0.0941951422683 2.01066599609
-1.95212199215 -0.263900933313 3.60731700606
-0.779539253733 -0.108036937006 -1.46846416727
-4.53976261108 0.129141524302 0.833002867561
-1.03712431352 0.34706146662 1.95052742788
-3.46021957287 -0.617824846182 -1.91279901313
-1.23820338394 0.109359481354 0.607819564891
-3.90989844116 -0.421958798578 2.58757454506
-1.45652400851 -0.181670685707 4.17837775801
-1.06283760575 -0.133502278226 1.6603322046
-4.03160361278 0.0894421514078 1.9803420728
-0.0873213448686 -0.141347574839 2.71893219305
-4.33126356091 -0.155596631882 1.40916389887
0.390306237811 0.170086583445 -0.608529387637
0.617603989383 0.121837299135 -0.390225099496
0.784316876965 0.318579904845 0.971824514239
-3.40420467092 0.0933600800074 3.30228587331
-1.92649286051 -0.111273074438 2.61966520322
-4.04914863079 -0.12649599748 1.97972027591
-1.04140773548 0.118196225435 0.602635722448
0.834673224461 -0.468114590797 1.56211592798
-3.0004416533 -0.660668438999 -1.81892463302
0.804032337208 -0.522044099188 1.00582324661
-0.406486081763 0.0793476663967 -0.939439568535
0.276508149673 -0.281331055621 -0.594848457628
-0.775022507603 0.34046777199 -1.40932760669
-2.62098509624 -0.380492782413 2.25882219364
-1.05715390103 0.0926946472845 2.01328099394
-0.629584719903 -0.0573803810719 -1.43495226303
-1.03035420183 -0.0757452976046 -0.241192686756
-4.26970139322 -0.435213560114 -0.838768703084
-4.58881286406 -0.137427408386 0.847763748213
-4.74754125584 -0.355626405166 0.266570667485
-4.77171555062 -0.405509439333 0.263710812043
-0.704084609263 -0.285596916282 -1.36624689786
-0.791669143033 0.17907506503 -1.46111968015
-3.90757932284 0.133089881183 -0.904327487171
-3.84002896385 -0.0504928538207 -0.979035413272
0.936697502678 -0.186740971603 0.675801569857
0.0628099060903 0.292273198684 -0.742428962907
-0.911538388986 0.352178391668 -0.0800986290141
-2.4710351389 -0.347998992769 3.51654826341
-0.466858927369 0.178490964571 -1.18283094831
-0.919911432162 0.109108134948 -0.234491715179
-2.57290866444 -0.53662334536 -1.78780049088
-1.39717098869 -0.331958333023 -0.618550046799
-2.80945953686 -0.26556600159 -1.97464400849
-1.90673293528 -0.397685461769 -0.956432215836
-2.68335983444 0.578153951727 3.55701635026
-4.28320862968 -0.529848959819 -0.86938678734
-2.47305437138 -0.323985280996 3.4766645535
-4.09589105438 0.137921177279 1.94620112485
-2.42745163039 -0.101437601256 3.49879791282
-4.09327349762 0.0409873005597 1.94760943969
-1.67531409504 0.316847358964 2.59693062985
-2.61407743005 -0.0524603068531 2.26483512631
-2.24620535525 0.0356549423922 3.53472167565
-2.14362618715 -0.284078646455 -1.96782955243
-0.854741253672 -0.109105730745 1.43169641075
-2.88417478485 0.414447259388 3.39566576954
-2.78176921167 -0.0496046719986 -2.03855850653
-1.80062400455 -0.302467682667 2.60625127454
0.919367098733 0.154061476664 -0.282157753005
-0.598832382317 -0.065730192091 -0.214945106604
-1.7076163043 -0.194855412454 2.59958767257
0.132983713134 0.0593884501158 -0.682358242425
-1.82021429849 0.653335011545 -2.43806787249
0.59843637033 -1.1093893001 -1.9689961587
0.605110602451 0.204124793443 0.224105718506
-1.06629634283 -0.0691932706237 -0.0212169066359
-1.17001284487 0.643315633735 -1.79787154516
-1.16919354233 0.54930126627 1.41159284552
-2.44918258059 -0.898960635259 -2.89318363923
-4.40882880949 -0.539577079713 -0.577047333049
-0.868447847746 -0.084421467322 1.55654780785
-1.29934086298 -1.91448114134 1.67396325348
0.153306471716 0.26723416061 -0.79676593949
-2.1960521229 0.592022415955 -1.95868458125
-2.25303247094 0.220631990351 -2.0351844216
0.655071959032 0.306898599708 0.441352283208
0.664511431301 -0.137588922304 -0.228679485325
0.0827544470068 0.149164926875 -0.785369245099
-3.38754824627 -0.37872107053 -1.90025320735
-2.24748932574 0.217527901094 -2.00672632568
0.332888565996 -0.799433607602 -0.653700361766
0.829067929977 0.308874604805 1.58479576522
-0.82086761886 0.0901882419953 -1.44899697204
0.187891022815 -0.692914694477 -0.723571367953
-2.27211549385 -0.625506444539 -2.0467054769
-2.26813533635 -0.62344223579 -2.0473774993
0.588522297217 0.30644361457 0.215603235274
-4.47980097908 0.0452582444582 -0.309942447144
-0.681225512417 -0.168486766695 -1.47575595151
-1.84226422153 0.045282276967 2.61232483282
-3.05518350372 -0.373281066262 3.35286606679
-1.26954898539 -0.175940109135 3.8738044402
-1.44424451442 -1.32308594737 3.95805777371
-1.80842716359 0.142665662324 2.60798500194
0.793593646028 -0.201726144941 0.424168337016
-2.24636358036 0.124839225773 -2.02841162173
-3.8325382851 -0.654859683 2.51185157669
-1.26543200154 -0.0810201456781 -1.82431705575
-0.349133729007 -0.307653253119 -1.31757164581
-3.01922010056 -0.560083996035 3.39117494523
0.654378075996 -1.72401250421 -0.327929617764
-0.391723790362 -0.291832567706 -1.15312969082
-0.886629797334 -0.0963261307561 3.46211874104
0.467803804139 0.163131734328 -0.52623256079
-4.28513238951 -0.311002571924 1.44900791807
-1.35166360315 0.110637496234 2.08267892014
-3.72014241781 -3.61184342256 3.53780741504
-2.83230921026 0.355343756447 3.37657506112
-1.18407476676 -2.29229249266 0.227229926942
-1.08041155364 -0.136658420551 2.00161596538
-2.62533062405 0.605992529407 3.64776060553
-0.536611704059 0.390583645505 3.07057810234
-0.461158962254 0.625841006486 2.84061255875
0.419036532552 0.308208321483 2.03478626558
-4.37620974576 -0.400009043623 1.47280622101
0.11335789305 -0.416208624461 -0.780079602067
-1.91309320063 -0.217955539776 3.70870978135
-4.43513344325 0.521618436185 0.871151897117
-2.6485373279 0.242838190241 2.28911123275
-0.35558606523 0.060398228982 -1.19835075184
-4.30223411854 -0.313026207683 1.43387761576
-2.87262000245 0.0591269986972 2.10404720063
-4.26274814709 -0.48978216253 1.48938316858
-3.80732757603 0.14439170359 2.49363100549
-4.41843657564 0.532077634312 -0.281588375674
-0.881191443207 -0.171159480292 3.46782259523
-0.28883555253 0.325024175264 -1.06678200469
-4.5320315282 -0.717447321348 -0.324159399855
-1.27115745653 -0.0717512732803 3.85819400289
-0.860646935217 -0.181341741559 4.02480872192
-4.04922713453 0.15345305815 1.95692306529
-2.88255376604 -0.759508873212 1.68718269171
0.601579488247 0.678725441869 1.25797359358
-0.529441024543 -0.49510916089 3.13290078168
-1.7420879457 0.054911414207 3.63569762337
-1.13685920617 0.32499643368 -1.81910511329
-2.44370965537 -0.923773740565 3.6435731091
-2.30173558415 0.0524196749732 3.52450729992
-2.50579741681 -1.16065834089 -0.241482264679
-1.35808984947 -1.28987674394 3.8221072057
-1.43068347933 -0.277029147986 -1.90362347461
-1.37933012504 0.279795714165 -2.02790518734
-1.37732890204 0.2020361385 -1.90794338997
-4.10923940281 0.283188736743 -0.881899750058
-1.03357261651 -0.46960864552 -0.205941238259
-1.24759401879 0.120719020466 -1.79530943364
-1.27237913909 0.266915530534 3.81508172268
0.842550276328 -0.196298605145 1.57623633888
-2.36704286433 -0.63138400381 3.6085022723
-1.05378822179 0.14284066697 -0.0310314584983
-3.47081935168 -0.284249493993 3.49630294532
-1.00242724621 0.368550521252 1.54467000079
0.579540408101 -0.658891753346 -0.431595399099
-1.15473667774 -0.268788443213 -0.672394453042
-2.81174679553 -0.0645041393535 -1.97156595068
-2.86614325545 -0.39094909778 1.95874918146
-2.30443633755 0.0404095019816 3.52379243239
-2.27356856358 -0.639106975255 3.65340994451
-1.06902966431 -0.454436277781 1.66038520906
-1.06022849272 0.113495840695 1.77217672809
0.757552187715 0.219564180225 0.411694723573
-2.59314091308 -0.0193671303639 3.46304159102
-0.809006323284 0.173583155616 -1.47633655315
-2.39919314942 -0.408110808014 3.47686071429
-1.27065773968 -0.0704022339915 3.85077908501
-0.723935179159 -0.78686094072 -0.272669045596
-3.31517835216 -0.553838336764 -1.8885634089
-2.87301130509 -0.371458388785 1.68726740113
-4.4632195926 0.0347711800227 -0.304529010961
-3.68881088523 -0.419622159234 3.03090526835
-0.406855650076 -0.467091016969 3.07592921496
-3.67179522251 -0.163731716121 3.02259559455
-1.58649265206 0.226099587686 -2.14342201829
