#.PCD v.7 - Point Cloud Data file format
VERSION .7
FIELDS x y z
SIZE 4 4 4
TYPE F F F
COUNT 1 1 1
WIDTH 1071
HEIGHT 1
VIEWPOINT 0 0 0 1 0 0 0
POINTS 1071
DATA ascii
-0.887256404038 0.00343858677133 2.13650756887
-0.522604778525 -0.133357185743 2.87502247507
0.907045969013 0.0486320415332 -0.125812004389
0.225627284983 -0.173464509659 4.89888478283
0.362160409161 0.449717411664 2.73601961683
0.0877604136445 0.356208718199 3.04116795733
-2.19975785893 -4.45253622808 2.25947447038
1.19470984765 -0.0981225091913 4.34471081085
-0.956410884205 0.166247877742 -0.0637784755688
-4.63645059734 -2.87953166945 2.39925769336
-0.873397852584 0.294579848535 -0.392530754492
0.273465576417 -0.133907921997 -0.773088857344
-2.66452931337 -1.22747490178 1.01316045191
-2.95208985148 0.330877487606 0.312307879039
-1.28602073737 0.563604692492 4.58487800107
1.0705544426 -0.137128024484 -0.265001477109
-0.793938683342 -0.0521153525385 1.93887662923
-4.57813179076 0.611464890483 0.0541440076452
-2.11044479324 -0.878661740267 5.22334263788
1.18011490766 0.0645726581955 3.37190770575
-1.67628399564 -0.977294785009 5.23939972336
1.10236911644 -0.219660106648 0.43740109041
-0.549181931918 0.468267966083 5.21132661337
-0.022010918735 -3.92922659811 0.819898632151
-1.16325892597 -2.50337561415 1.44975806213
-2.8307587793 0.557102548508 0.730386591034
-2.97705626404 0.0549386673076 0.733422002151
-2.8339576513 0.553601621917 0.738752163702
-1.3060800764 -0.905444604329 1.54380568138
-4.22008857042 0.679282911542 3.23000911449
-4.56474304016 -0.748907539462 4.88380177459
-2.9389747321 0.652434120411 2.96772665904
-0.627484046263 0.575503189983 2.68394785218
-2.23912990697 -0.391798254872 2.96893307191
-3.42206955868 0.619118930006 2.97571773508
1.18554901554 0.0557677823116 1.81377618533
-4.79254641602 -2.13633853049 3.47526540159
-4.90287710184 -0.175217355128 4.0406751243
0.124125089489 0.184827528538 2.90306688343
-2.86829034836 -0.273649592286 -1.18100617075
-4.41601631118 0.782916707631 2.94472384086
-1.40166469574 -0.236646976221 0.722634437168
-4.59753857387 -3.85610127706 2.51296086814
-1.7946671782 -0.0893735732359 0.71606504189
-0.793999626587 -0.159543335486 2.23333990343
1.37667774572 -1.3165416789 -2.0954052185
-4.64818126177 0.0479453304031 3.68847862856
-2.34181473521 0.544519570784 4.94439936063
0.207629390757 0.62425504168 1.43726355929
1.20303282112 -0.209429691225 2.68357620125
1.19576357306 -0.015949059914 2.64733077653
-0.894809933514 -0.214067217034 1.85990246905
0.747084824912 0.618100318894 0.45429883508
-1.12895751172 0.487736984947 5.06959406173
1.22067231834 -0.61538029338 2.57021474381
1.25959921509 -1.40073017259 3.32140738871
-1.29572976292 0.0603523074501 0.708166130851
-3.50087533691 0.534936411378 5.18144936711
-0.809161314067 0.515979381659 5.20551705335
-0.803885738947 -0.158800553408 2.22695354956
-2.26535141293 0.121602446876 3.02868492161
1.26183488207 -0.996345690726 2.05929082509
1.27854880044 -1.94259883495 2.41281088157
1.27462387529 -1.2384549443 2.05476202065
1.33046011242 -3.56184673918 1.78325806695
-3.49901574482 0.428141482952 0.204748420264
1.01313353086 0.345468881617 1.36703064476
-2.15391717864 0.197835009923 0.722372022569
1.21884518501 -0.204462051136 2.10679507032
-2.37023769227 0.225919817547 3.21462731635
-3.45354310346 0.013641815565 0.469746878478
-0.535491207121 -1.61134299245 5.26851093059
1.25610914089 -0.784061900674 1.66768163668
-0.0834613309282 0.319869250655 1.16882410993
-1.81081377006 0.571270077676 -1.10146293168
0.511407245038 -0.80085352252 -1.61001030369
-2.61373557632 -0.574636073941 3.59516406079
1.20171760115 -0.200013054779 3.23733260572
-4.68176681132 -1.18322582303 2.91492556074
-1.11535613128 -0.137963302168 0.718003243028
0.387486000369 -1.6777409664 4.67665814249
-4.49667293769 -0.135523626124 3.86091367147
-1.11268608401 0.222464979622 0.716262636821
-2.34197950085 0.489099452815 3.13537907151
0.0878886445528 -0.038509296713 5.26285905948
1.1200352347 -0.201903690146 1.75129004598
-1.26465045914 0.673132598596 5.10080693148
-2.61716837663 0.779283394106 3.58497382284
-2.26377435543 -1.78638404231 1.09789020415
-2.49539712987 -1.06989052114 1.23164758304
1.03442343145 -0.00692555084957 0.874848247227
-0.802271408971 -0.0113319372307 1.58526376806
-4.45873022747 0.14336416035 3.76430550064
1.09815488538 -0.187221670005 0.314982954427
1.45625752448 -0.501437954452 0.729468443741
-4.9585848547 0.682564748778 1.89284804303
-3.07648021497 0.0762611045259 1.60427310569
1.18448152709 0.198804227314 2.44130256629
-3.57776044338 0.414615871825 2.91292775305
-0.769207671877 0.833720972655 0.36948112178
-4.97720936928 -3.10825291498 4.05589132039
-4.23435192239 -2.24126467576 1.08224530177
-2.14038625214 -3.09460400117 2.14733088902
0.562910931606 -1.61917444641 -0.60765312358
-4.5984125536 -2.58039979004 -1.26579641216
-4.99087350356 -0.690538460441 1.89301016738
-3.24320513424 0.166282144116 5.22237734169
1.14311414247 -0.523056423801 2.61886359701
-3.00550622953 -0.0557003106889 0.0308292244129
-4.62597850439 0.118890258448 -0.0852197635128
-3.25049001555 0.766111599998 -0.473531354467
1.10569188007 0.576977865824 1.28437079373
0.197514629356 0.29973377969 3.28669414612
-0.736571406904 0.835422502202 3.58864148519
-0.356444277953 -0.132731939324 -1.08872528321
-3.7094444033 -1.24104981672 1.74002516635
-3.74914902734 -1.05687353344 2.0147112219
-2.61338105142 0.617170182417 -1.16067339341
-2.8055031535 0.0154079320182 -1.18703115302
-2.9543312502 -0.236605669573 -1.13274719389
-1.56181717038 -0.0117747777768 0.721122812439
-0.889766799158 -0.375259021175 -0.387145795003
-4.55081324417 0.576882781219 0.735351454053
1.19708044189 0.0438987172733 2.89519551361
-1.59351580699 0.199731266025 0.724672917663
-4.63215243893 -1.27975508314 2.59532333635
-2.53510889525 0.429551343616 0.732431714296
0.375595578609 -0.0782810862315 -0.754606999267
0.814835867107 0.612682192183 0.901419335759
1.18154949131 0.0524302151985 1.87218983061
1.16435064921 0.339530311896 2.25477530331
-2.86341024682 0.0613343969691 0.73431607577
-3.56584199616 -0.146852446295 -1.17309227921
-4.85823561143 0.243874105432 -0.728212655367
-4.50763723627 -8.2059224995 -0.264195417767
-1.61502928687 -0.293677054468 0.70492292801
0.38984949307 -0.616716234884 5.26724775794
-4.42558756998 -3.24681071736 1.73234118205
1.18634805002 0.126501243325 2.21202032656
-3.04409654835 -2.23107600222 -3.80887315824
-7.18102657513 -1.3982504492 -4.61444033057
0.575514180103 -0.777106870276 -3.47319138125
1.18072767258 0.274583713163 2.11776410486
-3.76626814946 -2.18720142972 -1.06499515754
7.63774889494 -2.08346317574 4.34709274811
-0.189999589236 0.445535695448 3.54336937093
-3.83672358762 -2.25730721075 -1.06544867717
1.06132846836 -1.86082795142 0.706995143624
-0.874636835122 0.112782087861 1.2852388473
-4.33937756902 -0.23655112654 1.08163749926
-0.794624098876 -0.321636295347 1.31835545289
-3.05390969857 0.638968868676 2.38800734997
-2.4092892557 0.178792296484 3.18104840185
-2.97038171195 -1.09205811882 -1.15856499169
-2.00830066736 -2.00582756052 2.12900528148
-4.30090021968 -0.19349426457 1.23791049046
-3.20678513835 0.142006913908 -1.16794158159
0.0689924981601 -0.186442793476 2.89396228382
-0.788019879316 0.0908046869322 2.00257362252
-4.89660809433 0.524846486096 -1.17464654547
-5.05066328849 -1.01090770057 -1.10675272012
1.26274330756 -0.516340102043 2.99834305823
-4.5055767664 -3.74617568683 2.27774044612
-3.02477580535 0.657686174483 3.07716599452
-4.46871135047 -0.246537438861 3.55849437069
-4.64202706771 -1.01737311006 0.536888794572
-1.08586902154 0.575567616727 0.735162654092
-4.39512556254 -0.841673387683 2.25245289162
0.0571492010001 0.35265970296 2.77199570402
1.03254591445 -0.12740792577 1.672040906
-4.5668570092 0.0674733995689 2.55483024032
1.19510952736 -1.78075444886 -0.985548736772
-3.23320015224 -0.105977967761 -3.54433783849
-4.6130831296 -0.236614250395 0.495820620593
-0.902361272179 -0.320288792747 1.83368738677
1.42582142643 -1.67688220151 -0.35878276494
-1.35968359416 -1.70824022438 1.62455209233
-4.566843777 0.0680771163391 2.55613723442
-4.36467493281 -2.15401295483 1.54727101244
1.59005126279 -1.77813712894 -3.25427769676
0.423351042872 -0.00522048120415 -0.805544276734
0.205304421509 -0.123186536666 2.71601893609
-4.62023059707 -1.21103041932 2.5412066939
-0.575371524554 0.74251089109 -1.0496138448
-2.65944784576 -0.123672298434 3.58010075237
-2.76702218951 0.289312943018 -1.16837343116
-1.98238576628 -2.37905078488 -2.63209613722
0.325082877041 0.347144463313 5.33014400526
-0.979351777078 0.470613428988 0.686978053372
1.24174154294 0.275134772059 3.0447428573
-0.896388538175 -0.451720542656 2.82461895946
-0.931848321076 -0.31241188248 1.67103956384
-5.26576065502 -3.05211149257 -1.62234389613
0.281213840263 -0.222291050763 5.20628543809
0.211259748126 0.720652134161 2.66624870134
-0.807586613987 -0.230140950495 2.37241079706
-1.81779521917 0.221565266963 5.19918706065
1.08904820337 -0.19915756538 1.64032957571
-0.803866124394 0.0123617617495 2.29392852459
-0.796780132589 0.0586742367514 2.32178563164
-3.02371035716 0.024058663242 0.0271895176387
1.27234165679 -1.26279422776 2.2137912751
0.259005405271 -0.395948398058 2.73746835669
-1.03336122848 -0.0927094893193 2.87035427223
-1.78839777117 0.121106686665 2.91366950153
-1.56547572889 -0.0220329248879 2.89466769926
1.33547786629 -1.5238766536 4.56050969029
-1.34834932015 0.367335307909 0.71236436613
0.952998203678 0.680484296897 0.0133939607127
-4.53291967356 0.0517511711226 2.62032320066
-4.60509345263 -0.442739697163 2.3510086
-1.67899017485 -6.13029929407 2.30335552687
-0.913624624284 -1.19272173349 5.22142556795
-2.76885910469 0.334657377054 -1.16758998275
1.51768040595 -1.48425514188 0.714215021707
-4.18451613341 -0.00336823815069 3.95132635518
-0.804952438592 0.0875289695491 1.99472789038
-4.58312168907 -1.1961169213 2.29588323855
-2.16147483876 -4.97600508743 1.70814858269
-4.24156999167 0.20907564178 5.1729747613
0.117841989814 -1.26546700746 2.91408086734
-2.22694522505 -2.31862672718 2.43652165718
-3.1598922375 0.636753499078 0.461779635638
-3.26260644387 -0.00854914601519 2.89867379165
-2.80854503663 -1.80636090481 -1.17367706218
-1.53725273517 -0.952751283162 2.32759773056
-3.36108687411 0.0875406385227 2.86651765071
-3.10254266116 0.00797862258975 2.88603560052
-4.53109165408 0.60205280328 0.0685363455458
1.1074764354 0.245750040036 0.549768499758
1.09837358482 0.16482210646 0.284705642514
-4.10776814678 -1.25232842908 5.25805887475
1.10099083062 0.414823975667 0.709588950478
-4.44301687417 0.132404290216 3.75735614087
-3.72081326691 -0.349721681713 2.87262888998
-3.4934637873 0.612951325139 2.95550845768
-0.96545798321 0.182806507129 -0.106019567889
-3.07458679468 0.148717978278 1.99672537374
-3.0725215804 0.179825297136 1.97421054089
-0.943119339708 -1.53240683511 1.83230302705
-2.28160820644 0.192766875764 3.06026254379
-2.62225285532 -0.356558089221 4.48007577856
1.10436936691 0.34246565024 0.903332480224
-2.1880718748 0.355727264187 2.91217818281
-2.58253970553 0.304561107171 5.1255914644
-2.30778309882 0.0487570890801 3.13015201806
1.0641342425 -0.533088100356 2.69744136689
-3.47028103569 0.234862829963 2.89743267586
-3.02722033461 0.257424500347 2.18318539502
1.24589324099 0.334148799447 4.41104676115
-3.30541845399 -0.530148064292 2.89616089972
1.10439367111 0.589677782817 0.741283072585
1.05516571262 0.184935717662 -0.0592043151527
1.10290158057 0.371398794033 1.26469637674
1.10110964752 0.248355763301 0.547736000292
-4.53029877395 -0.993665955336 1.16297936531
1.19955777134 0.166008967507 3.13254772827
-1.34297373657 -0.0946323311558 4.15951495502
-1.67499673055 0.463576055031 5.2261446881
1.11724515979 0.374687200174 0.30500821287
-1.03422350941 -0.0452878078995 2.87369288413
-1.02392270772 0.0628734138228 2.87599769396
0.256796755047 -0.394050159614 2.80641088077
-1.12183520098 0.252571182561 2.87275293943
-2.19453033562 0.149698039707 2.91531017614
-1.442657537 0.308571864854 3.57802005475
-2.62599396321 -0.117755801279 4.44928590295
-1.63463911651 -0.0637986516493 2.89645821812
-1.60898606545 -1.95584447893 5.27540854925
-1.42497181122 -0.559095753655 3.81577170913
-1.83535528831 -2.5693503635 5.29011246036
-3.79450015232 -2.55323107588 -1.27024195401
-0.171528610729 -1.15959532273 5.22776630715
-0.215666144821 -0.299541841613 5.21667721736
0.765861394647 0.0699765825106 1.40553589428
-3.45762313676 -0.600205057964 2.90127457519
-3.11926893629 0.786177939196 2.45594952441
-1.34708177631 0.340886772055 0.704649936642
-1.07171682963 -0.0366794933833 -0.220623770741
-0.334910197084 0.324474031534 2.85857021451
-2.36819769316 0.0347456032757 -3.9324484795
-1.8477237273 -2.40658807892 1.95041426576
1.44301618664 -0.816315715314 -1.51175809802
-3.00997433078 0.0230236951848 0.0946893474397
-2.8097429113 0.575557538412 0.733428296736
0.914280427127 -0.273172834617 0.785353935887
-4.29770810777 0.772988530589 -0.293667174029
1.3217931991 -0.336195375796 0.463390640145
-4.49306251374 -0.929158661239 2.15625295233
-2.03638404148 0.679187563267 0.735903874932
0.0269692771501 0.643510483415 1.15235278093
-3.82679195764 -0.228956238893 5.21396336627
-4.24128645665 0.485256285121 5.23726718649
-3.33652416854 0.433406191293 2.95056548532
-1.55818669138 0.723896529598 0.746487494428
0.328756974471 -0.313108633649 1.32000897239
1.2367353825 -1.00087786698 3.18667563156
-4.28402033571 -2.11629649813 1.06722780514
-4.50695094217 -0.633861049205 4.95508724083
-3.5671844555 0.19158071673 5.19935848498
1.16964709732 -1.48478672126 3.32734430623
-2.50786718509 0.126561278653 0.735681657375
-4.40506944499 -0.0974100067204 -1.14317683421
-3.89378929066 0.71227168317 1.88236723222
-1.17261508661 -0.2255229983 0.735170283708
-3.99298181344 -5.35695232565 -0.638823316932
-3.82980662356 0.23525201927 -1.14616154418
-3.31237406666 -0.299067021283 -1.15409844409
-1.6764294325 0.482856753768 0.743778952053
1.33460325753 -0.83903236201 4.02211992435
-4.43621579093 0.39613398074 4.31835596318
-3.91592398243 0.410515712075 1.20850100805
-3.07608073829 -0.24372035849 1.22783548193
-1.03277081088 -0.127705740442 -0.29537510218
-4.5778240176 0.0525651373532 2.59244189954
-4.58275472519 -0.978400921646 2.20905185431
-4.62040241873 -0.310546216039 -0.513045221969
-4.62380348608 0.187286379652 -0.422432590448
-4.68746500017 -2.82639494835 1.66187169009
-5.1030382727 -3.32757803767 2.01270986477
-1.97393621399 0.556429823064 0.738419531735
0.650813612075 0.434333061466 -0.280931350195
-2.88830261586 0.469087793509 -1.16126789268
-4.24048540202 0.591133508681 -1.12987344347
-3.36208185876 -0.782327938596 -1.15983550848
-4.12170580497 0.0558764597921 1.08862167189
-3.09869596263 -0.386746967154 2.7829426058
-4.49702204705 -1.07363186096 0.290308466365
-0.00921157748847 0.486472090186 -0.976384227963
-4.20489351054 -1.01298348361 -1.13109728914
-4.32819920786 -1.94755787949 2.84193231192
-4.58700026556 -2.35549960197 -0.477121168848
-3.07820460983 0.15487421158 1.40667598625
-3.73204500922 0.27211783041 3.01276679594
-4.50658780484 0.508939927739 3.54119419525
-0.754044738958 -0.354231600308 2.74407736485
-4.45877339082 0.20129635202 2.94804953858
-0.642992036011 0.672890026907 2.6594255573
-0.80693970553 0.268601962 2.61598356352
-0.867476895927 -0.817121268033 -3.10535244194
-0.888657440942 0.0712158424815 0.998768003233
-1.83808127223 -0.0291179768209 2.9181927115
-4.18119799741 -2.82225601777 1.11583116787
-0.874711028247 0.150682331654 1.62488948394
-4.58019120355 -0.645811319939 3.53952290078
-2.26207169626 0.651104720594 3.16843010446
0.466683662686 -7.10404443406 -1.78912697449
-2.25579050138 0.641825240955 3.2777441029
1.25921838058 -4.74993634957 -1.6259300285
-1.72402180295 -3.06686522664 2.07579509093
-3.02211608643 0.409142343092 0.348356023463
-1.74667476358 -2.57838659579 2.30052916729
-2.53099154971 -1.615976483 1.23882815913
-1.55593499043 0.557191966655 -1.02346775992
-4.21292855574 -2.07081775451 1.48368021001
-2.5984412393 -1.76312240986 1.55494835356
-1.19687272371 0.418802763919 -1.43478834798
-0.274252969055 -0.445821181819 1.14715455957
1.18719376402 0.269778795926 2.49622324521
1.00570283269 -0.105915045719 1.70855852738
1.24403046452 0.6581520317 2.32988701143
-0.923556176204 -0.650417128664 0.610086303806
1.58328903666 -3.06223916802 0.399443534891
-0.860292708517 -2.78020398336 1.94134262293
-2.58796940866 0.411733651367 4.39533389715
-2.65684061132 0.260545584114 -1.16826935766
-1.11669076376 0.749795010226 0.721284988351
-2.36363438545 -0.381084653736 3.15219396309
-4.98372171538 -0.65610556176 3.14879902996
-5.11309169061 -0.317973810284 2.93902657585
-3.30146584398 -1.2826308739 5.18366244112
-5.05365969435 -0.906649744847 3.15963788965
-2.63273367759 -0.781049477281 1.52504546885
-2.53917230141 0.426590794276 3.43811917598
0.681302127084 0.446131936002 1.36241794651
0.823109540747 -2.07088634028 0.386260073369
-4.58093443936 -3.17123713902 2.84190374345
-2.55220523268 -0.132013384062 4.3995808869
-3.10167003622 0.323449020537 0.775628262913
-4.14912111173 -0.181090970719 -1.13560147123
-3.18347076991 0.582622178237 0.593695703984
-3.06770330658 0.215542593345 2.30215603825
1.31716894973 -1.02098130282 3.15219271686
0.189774386249 -0.868234176463 2.99951340746
0.605130731677 0.721177036208 1.33214780846
-1.79172760786 0.111459156893 2.90052966626
-4.34039903087 -0.207367600545 1.185648663
-2.60973052597 -0.581519091968 -1.18901885824
-4.88509864999 -0.45045913569 -0.972022188753
-4.30705578124 0.298655383466 -1.14033548612
-1.07273602734 0.629733947113 -1.21773753227
-4.97522353384 0.276527629934 1.73030600638
-3.28962453444 0.284225820302 2.90147634215
-3.28675123125 -0.155040261873 0.0575881046885
-4.63439590767 -0.658034842243 0.886009391423
-4.61185548928 -2.80654444853 -1.30858077674
-4.45991222495 0.2405113762 3.32989321169
-3.47602254647 0.230317133793 2.869708275
-1.66427741135 0.639034593256 -1.25378440173
-3.04626192103 0.211475168534 2.36486410887
-3.08570325588 0.430056132113 1.34729677557
-3.06585238927 0.0771263179448 2.11013706303
-1.44266304506 0.516332636106 3.35544485866
-2.29802529581 0.109797758361 3.07184398644
-2.28885562518 0.180412269413 3.07189552376
1.56944394684 -0.702841134678 0.750481808588
-2.07146391647 -0.0718085458644 2.90442885849
-1.24725195455 -0.77009532281 -1.27976410205
-2.29472935415 0.0827895591629 3.07429562742
-2.26619055453 0.0814962199384 3.02804748067
-2.30302667135 -0.182485754631 3.073341807
-3.62047011404 -0.137241631681 2.9221886989
-4.18862584315 0.672185286485 3.37033711212
-4.45258637246 -0.0390334592938 -1.13370941453
-2.26567093291 0.0797674201243 3.02899069444
-3.08044380236 0.253401134598 1.16900299827
-3.43336688708 -0.018003410519 0.0615687918357
0.282634656337 -1.10551966949 4.96253536952
-4.44957548472 -0.179988859947 -1.12266182756
0.251534008454 0.589848669543 1.2520074049
-3.08182103433 -0.00327905556175 1.34794325295
0.30838107026 0.57795687674 1.2561373438
0.169186467268 0.629301445069 1.24086337726
0.148234421973 -0.186571606641 -0.899794739851
-0.927897346381 -0.658471243614 -0.122262718721
-4.18011737125 0.657193321642 1.2504140406
-2.65880271028 -0.56304885692 4.32515815317
-4.61097829279 0.808129454339 1.64960957616
-4.96156182838 -0.309930866006 3.50113494228
-3.03231651895 0.277686093919 2.63386974628
-1.25415316594 0.596609236519 4.38591122155
1.10475371015 0.737916167718 0.571407204822
-1.6663975354 -0.823306355979 2.06577917389
-1.59555006287 0.117915806046 2.90512615397
-2.59296903578 0.184333011895 3.55356974935
-3.41313593686 -0.063571835777 2.95469270008
-4.35529571209 0.472014431878 3.53765533355
1.24713038103 -0.78954785306 2.15492088433
0.169924562844 0.13511531811 5.0721037344
-2.52743139993 0.275035594255 3.46840412641
-1.63831273157 0.153211472461 2.91199637652
-0.730555555676 -0.487327635822 5.15765182727
1.09355611936 0.3633225428 1.26023488244
0.120819687623 -0.0381875837954 1.29220110288
-2.61084264627 0.761129499466 4.41196144983
-2.27515649984 -0.38153458029 3.01843308032
-0.782924857506 -0.0936861240527 1.6246848834
1.35641105293 -2.61260939261 1.74522695934
-0.803998787628 0.529774246338 5.23296544154
-0.289478151845 0.8153511794 0.333038185087
-4.41814120008 -5.23993286932 2.02104320851
-1.22193396419 0.149873036361 5.22976412705
-0.784837026116 -0.0602219657639 1.48876509617
-2.68215216497 -0.513523596883 -1.19793782685
-5.10904430916 0.862843274761 9.30224835319
-0.804575900052 -0.128035821533 2.33676792354
-0.55982472212 0.0676371608521 2.81491760779
1.09154761059 0.33978376388 1.09034416596
-1.89313755287 -2.60051527088 -0.000211649695547
-1.97094216502 -2.03744297929 0.168428595444
-3.43216998433 -0.467503558935 2.92985416937
-2.50834069956 -1.5024616281 1.08996669834
-4.7178674242 -3.90439764026 1.97869850992
-2.18330773151 -1.15960789772 1.25744607984
-4.59259403722 -3.70534272288 2.73496895535
-2.38909292467 -1.80931552561 1.26393400624
-4.45464263674 0.46117319446 3.48639289358
-3.05019809908 -0.984814023286 1.64994847954
-1.36900325988 -1.26997292574 1.57990527228
-4.47132040459 -0.0598743980211 4.00741612625
1.20747250372 -0.552169633193 1.81699576546
-2.06679676061 -0.0712766021574 2.91112114241
-0.684716403776 0.446462106404 2.78964268223
1.23500831113 0.39979547128 1.89057045017
-2.12708052771 -1.77067806222 -3.978368404
-1.17074728874 -0.180890126526 -0.32105955522
1.35297022212 -0.391685572089 1.92448538284
-0.864282430048 -0.120527821507 5.25961729283
-2.59502974879 -5.28319690304 2.82026415337
-0.793383709599 -0.0994866253759 1.00032054344
-0.787403841549 -0.0528677108796 0.988828423606
1.16099113399 0.730609682046 1.92891961717
-3.07671637036 0.227265157149 0.804736806945
-1.93689800029 -0.746399719189 -1.31361369436
-0.742256070447 -0.627335305071 2.0141320135
1.10355198356 -0.357668802597 5.18483216262
-0.785186071146 0.434979478992 1.66893752209
0.0391354540928 0.147768611272 1.4178123232
0.307241269434 0.788868224334 -0.776367706008
-4.61069276451 -0.363519604959 2.52065770686
-3.38105243608 0.748928088443 -0.0533672588865
-3.02912166221 0.747267754015 1.76055229923
-4.45559281322 -0.131445323924 2.9391706324
-4.45728080521 -0.126775861469 2.93785590604
0.266122396286 -0.203447468422 5.12920673724
0.0517194370138 0.375347203536 2.78092898523
-0.872959637012 -0.164306045384 1.69742093442
0.231040167389 -0.252447622369 1.3294949906
1.22573085224 -1.00733780882 1.9239802996
3.13517674844 1.29926197346 8.83403811581
-4.58158156702 0.609462269774 0.235951905489
-0.71444617592 0.451599219683 -1.28314013316
-0.855465990009 -0.0737371322336 -1.3027330141
-4.41140560145 -2.38744918889 2.33682679723
-3.07045052788 -0.169732050277 1.61088546555
-4.85323950392 -8.89976209253 0.856318901664
-0.775281526922 0.390606764036 2.76535346526
-2.07033231893 -0.116016437901 5.19812680246
-2.51043373177 -1.38795249029 2.60803672067
1.22490034072 0.669780726659 3.56817566428
-5.11584080534 -0.719058760604 3.10167709329
-3.12270742947 -0.328348494706 5.1918651487
-0.379196908571 0.275121006927 2.84190393697
1.19830836367 0.0166010774135 3.33368304486
1.19980066104 0.124705507644 3.12683416726
-0.14305429059 0.417567946274 2.77866488554
-4.24996276381 -0.387204415891 -1.13448329906
-4.63657620345 -1.45358210821 1.87923107156
1.21434047197 -0.424740939983 3.06724759741
-0.0536125443224 -1.97382698816 5.35447547851
-3.00297852074 0.138723187934 0.375907522781
-4.36758769782 -2.32569112292 2.29289322444
-0.0534218349284 0.224473614889 5.25319660874
-0.262647589022 0.521310068629 5.25097022137
1.16297983788 -0.581748047633 4.87921560628
0.0910152494421 0.771750751439 -0.823131562107
-0.288980525744 -0.887557710384 4.25678932615
-2.60098374577 0.634543316396 0.738497270085
-4.50230091032 0.231745108082 -0.473125370979
1.39194032381 -2.06256254816 3.20447645005
-2.86478748408 -0.0745155105212 0.721745727411
-2.78767722359 0.479521245271 0.736918007274
-1.67219213991 -1.19863656847 2.10816556735
-2.64998064231 0.434267790149 4.40294963644
-2.51884167141 0.366684575425 3.44440868536
-2.02563505068 -0.342613343199 5.20510741049
-2.46310243733 -0.0946629254409 3.33898278641
-1.19215706886 -0.984230221283 5.22057556031
-2.45828695 0.16003605384 3.34286130399
0.915225695791 0.663406240049 0.233341443878
-2.62691035723 -1.62624109513 5.20632858919
-3.29303644813 0.715734311744 5.1959922007
-2.71557372813 -0.35367065177 5.1544228678
-3.96774756454 -0.163132276463 5.25997834238
1.00779274952 0.289307943327 1.46856443976
-0.972033565686 -0.264392770585 0.639091367571
-4.21400592897 -0.699318093716 -1.05768124832
1.18585955822 0.203957732923 2.18723074796
1.60958748567 -0.921972592506 1.06986104007
-2.19253280309 -0.432548596161 5.16768550236
-2.47166070214 -0.138009711518 0.735989943393
-0.393524137427 0.17444642739 2.80867498859
1.24430114277 0.592606340109 2.5787404635
-0.645883445168 -0.15462257983 2.81007625609
0.596839774518 -0.379443274487 1.53395230542
-2.92965253308 0.780419826023 0.72791454958
-2.58282677093 0.198020205181 3.55229046071
-2.50110615846 -0.0394919870038 4.62440279297
-3.11188415723 -0.843243446318 -1.09498755639
-0.799716134334 0.0910412882655 2.32105874761
-0.799603610849 0.0752334746195 2.24314865736
-0.797373702794 -0.463699869569 2.1184456017
1.46315005457 -0.351535817711 1.09837769128
1.20475466842 -0.218549061771 2.79463564278
1.19690947829 0.0192574616822 2.82163442688
1.19514628822 0.059843686551 2.946990863
1.19518865215 -0.0163228769285 2.74386734488
1.39999166873 -2.21624515478 0.25801252235
1.20637333485 0.277577533398 3.01790872299
-0.791293111899 0.140899410033 1.47506680247
-2.35917711318 -1.26337749197 -1.17809746306
1.28156155597 -2.82298267492 0.270539154794
-1.17900116332 0.550281684835 -1.28626402485
-0.655599423653 0.188841153254 2.77956916854
0.331228063908 -0.875613971709 -0.450480864641
-3.41536141104 0.481193855127 -0.0266787582986
-3.02025505342 0.274100015317 1.36459082702
1.0148600175 0.270145194973 1.50005882777
-3.44107823084 0.475715512949 0.0464155264716
1.00931951798 0.352364696259 1.60258362393
-3.03956669448 0.207619670153 0.87092315542
-0.885204997644 -0.00379370236205 1.76726931395
1.01506004424 0.480662016343 1.41428933413
1.00577857899 0.418223200046 1.40189337796
-0.432667966556 0.339857655437 2.72165775694
1.24025768166 -0.145599769947 4.80002473357
0.953621694338 0.644863005347 0.599753020596
-2.06873059239 0.694636768502 2.9109831539
0.014251630117 -0.291489243566 2.89178366712
-0.685376563923 0.541896226461 5.241984378
-1.78314042966 0.114022442246 2.90812680339
-1.38623855428 0.476648221633 -1.30515127494
1.18818609029 0.552984640167 3.08317537925
-0.563927302555 -0.930876031047 5.26511928366
-4.56551611971 0.706950299875 0.27332806027
1.66632502828 -0.492509491711 -2.04003952101
-0.958227908718 0.267044576922 2.87252280684
1.20267000708 -0.509908000174 1.81448985308
1.19245824637 -0.141387218648 1.68264676266
1.18830769918 -0.454939397558 1.89167232329
1.10838594894 0.558725336563 0.41779394835
0.822886359748 0.87391128835 0.124174347568
1.60611533167 -1.64565635675 0.0736004676239
1.14092414611 -0.215975106477 2.37191862087
-0.89440310699 -0.199035176084 1.25420233776
-0.641537864682 -0.19124807329 2.77807650265
-0.357481034715 -0.638741499377 2.85393705738
-1.52079649418 0.11294686944 2.89490722541
-2.10028195128 0.0429369750965 2.90849633664
-2.30649851482 -1.09152480493 5.193433937
-0.895099766282 -0.15119230644 1.32670132584
-1.44869619948 -0.353096561353 5.22462674624
-0.79031919813 0.0279302218564 1.88631775606
-0.0832751582725 0.364632485431 1.29305151167
0.211205915742 -0.0807363675713 2.72506073908
-1.86419992996 -1.41189306238 -1.47520698196
-4.30196515444 -2.65501235912 0.538126219054
1.1226204428 -3.21834653163 -1.17067133811
0.856318728446 -1.74964400871 -0.611297176195
-1.55376944496 -0.0746063364522 0.739011780723
-0.894605483791 -0.375044228579 0.947498704426
1.20940037961 -0.177867386693 3.74767496004
0.748732530642 -0.464644489978 1.45565610052
1.18129039522 -0.761210691969 5.24967638733
0.988883865711 0.476448864249 0.969513539637
0.786492552808 -1.20027892709 5.4171238549
-0.783832537269 -0.358729330121 2.55072298378
-2.47663009983 0.403199649951 3.374430023
-0.884770789156 0.104427092733 1.30358191082
0.202490039942 -0.0382271532406 2.70485773773
1.38207628283 -0.0780647220373 2.74579868976
-0.880880126672 0.172049025623 1.95569310947
-1.45208703061 0.461983805515 4.61645278609
-0.955439010754 0.796658221798 -0.23329326507
-0.874710850178 0.179585871546 0.966412169921
-4.47351222916 0.137423819424 4.31668763986
1.22851993766 -2.6796952064 4.83088598478
0.589056681088 -2.17655213198 5.24390539267
1.25954983835 0.205048351282 2.96937707271
-2.49764549386 0.1806995318 4.64382506583
-0.116773807286 -0.618506632996 1.45667232454
-1.09463447408 -0.130916960818 0.722711264438
-4.37639755478 -2.14249261184 1.12156614418
-1.30144053175 -0.134393006553 0.719408010911
-3.18321331848 0.226225277294 2.8014031916
-4.55884131846 0.707480590257 1.25375986314
-3.05656720567 -0.13749557504 2.04082773198
1.06985302664 -2.03817601482 -0.837726273594
-4.62387797509 0.22571262177 -0.484447709144
-4.55177197071 0.817629624446 0.430253078133
-3.28687490672 0.265611948275 3.00871311873
-4.13944650653 0.675474736429 -1.00648426732
-4.47305826654 0.172790570207 2.91467047726
-3.81899621328 -0.228054836238 5.18346636692
-4.74724867986 0.250314065873 -0.706219827313
1.260818129 -1.024197719 1.07191581257
-4.47443792545 -1.79326809864 1.59552069945
-4.58402361 0.160760844017 1.3779236007
-4.57782295518 -0.0349716277085 2.31506441616
-4.55616695603 0.146860094098 2.58752081644
-3.42649651454 0.326551015138 0.470118780142
-3.31636118488 0.196381782207 0.0367315543903
-3.06675555096 -0.0516455438714 2.18125331051
-4.56080171818 -0.0297312522849 1.50389248911
-0.651816137127 0.828676669118 0.827107055151
-4.94307637488 -1.14872388729 2.03472372636
0.95661958269 -0.0471126669355 -0.123947683628
-3.48554064824 -0.590644657247 -2.43727493295
-1.93473555025 -0.595889855699 0.779906839688
1.44794285118 -0.624734439969 0.798050165259
1.16703481209 -0.146694201825 3.13247514968
0.948173194076 -0.0427736384138 -0.250787028372
0.962104645506 0.00283691660591 0.480092216193
-4.68052922452 -3.70337967862 1.95077702396
0.00762417459637 -0.111209438863 -1.11446252351
-4.6200737188 -0.291268882957 0.478977011146
-3.08191086286 0.151727508998 0.954039616745
-0.645304857799 0.476197829888 2.7403846298
-0.0722139213976 -0.506324131298 1.17835420549
-0.391878905101 0.542659445842 0.178261238635
0.271625340247 0.0999028869785 -0.147188809835
0.874207970721 -0.818254275942 0.144976810066
1.00407501115 -0.594533784054 1.31777030659
0.263808725333 -1.21902718643 2.57330767981
0.934075642598 -0.47366849461 1.25979098592
1.09650972832 -2.04860651922 2.28301392511
-2.83169163313 -0.183664271996 2.87671121106
-4.69175050592 -0.0927756032235 2.12695503564
-0.77258860781 -0.0774179340769 2.75621859518
-1.23747570768 -2.70628047309 -1.35328329211
-0.784231726304 0.00838059740366 1.17389778349
1.00492795331 0.425190456302 1.37367701371
1.01830456184 -0.0878760899921 1.49899553613
1.01049006923 -0.00405805833465 1.60572667609
-5.01893761079 -0.0115859148349 4.95131417398
-3.71850886766 0.416207170298 2.95475971782
-4.46503801283 -0.22774663038 3.99197826227
0.935509586223 -2.29401472735 4.93622078865
-0.95399948023 -0.619971608952 -0.559105406651
0.814443792349 -0.410183954168 1.14200010176
-1.26929368732 0.783783815378 3.80698950181
0.489232420821 0.0382527593377 -0.319775688919
-1.48353390103 -0.0793687586312 0.747578196323
1.10226774764 -1.15236335029 2.88906656584
-3.66775952093 0.360262481328 -1.07579870062
0.262532283342 -0.29128746558 1.32422802181
-0.673424460758 -0.209016245515 2.79537906586
0.0448361566573 -0.850152885788 2.84232046699
-1.4605425935 -1.42364837094 4.9483688539
-1.11410206473 -0.500756048441 0.59610935214
-3.0618853448 -0.272046466177 1.33862074914
-4.63545166938 -2.55798629413 -0.205568099907
-3.27046407064 -0.0651256769136 2.93593538734
-3.78058538138 -0.0990178186497 -1.03274544518
0.0266484546631 -0.299402835577 1.3183090322
-4.59470386971 -0.178342841407 2.86518057215
-4.56710503169 -1.14633866662 4.99769377963
-1.2371425874 -0.166732553903 2.87568135775
-1.06807799368 -0.446098977418 2.86580460751
1.17680987312 -0.287404741517 3.29762369516
-4.62201162613 -0.101410493293 0.0217714205043
-2.31160074247 -0.532236363417 2.93619009716
1.10241608174 0.335393763796 0.448656763874
-2.83459690206 -3.42439847224 2.12647892568
-0.914463272934 -0.233203156195 -0.3124552442
0.668104456474 0.521034377931 1.52156544345
-4.45104355705 0.136387998694 4.35185031187
1.2419480554 -0.114379816831 0.203884257292
-4.57584423938 -0.246859647416 0.416284328287
-4.56575035644 0.686337157382 -0.0136625711694
-3.84194682124 0.420030486301 -1.12275655274
-3.39654386635 0.789062134366 0.486140163687
-2.46235387873 -2.46866428523 2.85899650204
-3.09297955895 -0.0167791547882 0.866552649995
-4.37143528389 -4.87260132689 -0.176120761859
-3.0837186915 0.149553347909 1.3869725557
-3.0776483452 0.154611222752 1.43819351351
1.02092467682 -0.00408269816671 1.43118431357
-0.649868950513 0.0310640070744 2.87183921017
-4.66872276244 -0.954272383162 -0.585011922921
-4.97066256973 0.266616919706 1.88685596608
-1.15691871344 -2.68474519868 -1.23869992367
-3.0750455693 0.301424120643 1.47015171134
1.10783686702 0.346016112759 1.04439090973
-3.43915993873 -0.187995014257 0.465643374154
-0.944772952576 0.264253724822 -1.37180241141
-0.81736357804 -0.00940941895595 1.11762200329
-1.5532023346 -0.898239841052 -1.39263179372
-0.882885996437 0.749216853041 -0.245597506337
0.288646688683 -0.291577038804 1.31498800846
1.20849282164 0.0291244985558 0.315253069784
-0.932553031113 -0.881309216815 -1.35098793964
-4.45321811209 0.177966339942 2.91870147166
-0.823691720798 0.859885988782 0.701503052489
1.04320023205 -0.564467036873 1.34263918783
1.56371803574 -0.569841141442 0.967861281813
-4.43875933637 0.29379148147 3.19368179843
-2.48991815124 -0.633800430013 4.49434147958
-3.42146640024 -0.471218207791 2.94049172178
-4.27215470614 0.190009232695 5.21776311775
-1.61033924801 -1.94418714909 5.26771607794
-3.60418164781 -0.239345802305 2.94569090033
-4.8438983805 -0.428788785566 -0.971349613707
-1.96781902768 -3.01980317097 2.03117236674
-0.122143125327 -0.915998717822 5.19116581219
1.3960931819 -2.24578103687 -1.15221743172
-0.882451031521 0.53168812998 2.5143300064
-0.319899736969 -0.890600128227 5.16703882351
-2.63972532014 0.0297225924842 3.62185591615
-0.732002715728 0.798861492564 2.7900244698
0.152624753233 0.682748237681 2.66758300631
-0.889828324235 -0.109572120343 2.35273379938
-1.83336458858 0.0422412775052 2.9055145294
-1.14137449985 -0.116311979685 2.90826501298
1.42691921174 -1.52395501154 3.50654664511
1.01449496953 0.108460816957 1.41549609063
-2.39452253943 0.191282080191 5.01270044906
-1.36899946537 0.450150466866 -1.30451041698
1.56222152564 -0.557121347312 1.13063712048
-3.3032583703 0.800620953698 2.96870726319
-0.883859746275 0.000432105052767 2.13311570556
-4.58926595703 -0.703536998436 4.87305252155
1.1719666257 0.396098834597 1.8655357448
-0.078553846321 0.158498792756 1.32984051315
-3.88254653081 0.25012878693 5.19389527344
-3.05691418431 -2.16587341814 -1.43088956483
-4.61313044703 -0.456727712445 0.0274929647434
-4.71639055486 -0.724600089281 -0.783735090518
-3.38068749508 0.953216926839 2.98363900173
-4.33223063307 0.728072307607 4.16289552308
-2.85378307483 -5.04163185002 1.3291491415
-5.15545699728 0.36971104554 5.16831922651
1.2789986091 0.20687981435 2.04846115062
-4.99945071542 -0.926728299434 4.7061835539
1.20433398837 0.573927200855 3.01479685295
-2.22313312823 0.224518406167 0.731455449967
-3.00989790155 0.36898732225 2.28831906441
-1.08160246617 0.361842970556 0.72782248508
-1.21829383465 -0.23280565204 0.706344692594
-0.848510086666 0.492320389536 -1.30101162899
-4.42116939183 -2.43692467085 1.35287835938
-3.76213113461 -0.069913266365 1.94146499182
-1.19402982838 0.428509992942 0.720454996906
-3.08033796687 0.0505918558225 0.938283276498
-3.59633732447 0.0488471849359 -1.16892507081
1.01441596237 -0.248600365902 1.28977708733
-1.31860477347 -1.38362709564 1.85486775458
-1.25526468163 0.714041723548 0.742634826993
-3.02321371043 0.129310899997 0.187361391958
1.19550709561 0.205403512663 3.07012409078
1.10002206787 -0.0920937500964 0.547038009095
-2.27224372114 -0.426134782822 -1.26450467042
-1.06497495674 0.268755815829 -0.227358232591
0.318688264901 -0.311606629782 1.31129493559
0.315937516026 -1.2164167231 2.73460553398
-3.74153594486 0.387497683437 2.91959640998
-4.66878664265 -1.84026851089 1.30510395809
-0.838367252322 0.699626371567 1.28365351219
-3.58315764639 0.425039216289 2.90752435247
-1.31810716392 -1.6694045605 1.49313884171
-3.18240978013 0.566309141115 0.595878275851
1.09098634348 -0.185997600049 -0.224778186231
-3.08005821503 0.191416602504 0.874481013752
-0.784193989223 -0.159966957673 1.09738458745
0.593992659441 0.122077479728 5.19197371236
-0.725897795764 -2.19280881172 -3.07937464179
-3.68323356022 -1.84203097738 -1.23061510975
-2.16559380224 -2.4650459571 2.36764581571
-1.83099443973 -1.52257528738 -1.14176767355
-1.30574054198 -1.59165790576 1.55683445477
-4.60998865176 0.095219219477 0.617548107044
-4.34058915101 -0.0108663299465 -1.28466922954
-4.37139683766 0.698963287932 -1.07613555832
-4.45924504199 0.149288172732 2.95909885795
-2.30779926414 -0.937645154143 1.14632990135
-0.895919624055 0.263877930167 2.13375831415
0.76151826455 -0.237479261557 5.09096833866
-1.16058084393 0.442677534656 -0.436594769494
-2.78564446134 0.436642641723 -1.16102630292
-2.48593977814 -0.100093085734 0.7337573713
-4.73568515199 -1.09213144542 -0.862157983494
-3.00238019829 0.204067841809 0.729047997299
-2.73714334454 0.481279408851 0.736918973083
-4.55724435433 -0.425247799883 -0.237544886049
-0.729810478486 0.575640248746 -1.17294980722
1.34162412383 -0.302884621846 1.77436076551
-1.71031327252 -1.70928284335 2.43726710607
-0.816846965931 0.319907316178 1.88141298027
-0.740682603882 0.740905642715 1.24476843314
-4.4680710213 0.322237026768 2.90876973551
-1.13704452008 -1.77955284596 1.71413356447
-3.65898438997 0.314739478071 2.9125114457
-4.57848603171 -0.161915564102 2.83898980118
-3.33659105492 0.239797670326 0.0659179936144
-0.840685918696 0.028043444356 -0.416283969033
-2.57643692511 0.807253970034 4.38941587083
-0.732061640808 -0.41847223675 0.895206694575
-1.84949641983 -0.595354764036 5.2219049389
-2.42508827962 -0.0855088114849 3.23244863647
0.890512985199 -0.427327495542 5.27757061828
1.40264163686 -0.711826213018 -1.18883512296
-0.799238492906 -0.206319581931 1.73878106164
-4.23980203583 -6.37400332363 2.05747033735
-3.33832275872 0.370504254985 -1.14008874916
-2.06642316551 -0.0664667430714 2.91569347569
-1.7178798253 0.121000356568 2.90874437087
1.19768420587 -0.160891410961 2.44871526431
1.18990759423 0.0641854683423 2.63918329641
-0.796813101581 0.0584827313527 2.3116020682
0.325804760347 -0.91047407833 2.75309601211
-1.23956853058 0.718537512563 0.759763251344
-0.57451506856 0.777708198462 -1.4367054629
-4.85762244961 -1.26722801585 2.53521065299
1.24825662866 0.445889099454 2.12484334202
-0.452761318018 -0.176075340595 2.63856191988
-0.84381379486 -2.59204620404 -1.27413663471
-0.884267317913 0.139410753081 1.2045088217
-1.13777889341 0.610879771384 -1.83152548768
-4.6016556925 -0.441844591459 2.41608427771
-1.20789676258 0.451574902209 0.719543458883
-0.384094952305 0.308145478897 -1.09452678898
-4.51933067006 0.775164015766 3.28310376547
-1.01377093533 0.272747557709 -0.0778887301646
-0.88042303873 0.626817093842 -2.25513567367
-1.19369322916 0.443298974949 -0.385186850328
-2.91137569657 0.128910317579 2.90105032048
-1.33239092006 0.577480100534 -1.21615284236
-2.8419807177 -0.221625796029 -1.16829021793
1.2199172306 0.891698809509 1.69353590153
-3.06894465576 -0.216612816648 1.87525540437
-0.763091155821 0.788773717547 0.758462136231
1.18475447139 0.444381518902 1.67518948738
-0.892516378444 0.711954984721 2.56720212388
-2.37114008641 -0.246833919856 -1.17165371314
-0.878252056475 -0.178094953872 -0.417538559819
0.0800890544494 -0.413086997278 2.95463617629
-0.715187552953 0.181903253512 2.8723167406
-3.77318148118 0.163579783106 -1.14046590169
-0.855988541976 0.0409051255863 1.6269559733
-0.781600350177 0.146642643653 2.16887524947
-3.07620631859 0.177707682308 1.97552685927
-3.07199916415 0.246749537698 2.02233936171
-3.04477565706 -0.0951213527631 2.52630756537
-0.797210231879 -0.206505512616 -0.074230706552
-2.43766764914 -0.101074089275 3.34883764053
-2.57320129946 -0.55396719513 4.78726038367
-2.33459232199 0.754432192343 5.05808738375
1.64885481938 -1.42038152698 0.611293991812
-2.40074177794 0.116914883219 3.27121660376
-2.52401573523 0.119791430788 3.45970556982
-0.685617888099 -2.36552383411 -2.05173651355
-1.62111999141 -2.09743514199 2.169028851
-3.10949250265 -0.169080170514 1.06026195512
1.27385694382 -0.122915060084 2.03148552307
-2.14999290988 -2.19726241434 -1.25063871847
1.00842711019 0.654052051717 5.25839978454
-3.53712893866 -0.276624275762 2.95469050639
-4.66483899664 -0.755409761313 -0.799339963766
-4.38000484876 0.482129942712 3.51321093269
-3.88587371652 -0.374269440066 1.01795195395
-4.61636179504 -0.21009722279 3.20385605555
0.11857877002 -0.0375654853701 1.28658603916
-3.37935921689 -0.0201665810309 5.18873560792
-0.773271026004 -0.0907080301707 0.984848919479
-0.772190090504 -0.0213150443557 1.07169134004
-0.979014859324 -3.86861587579 1.87837988449
1.51552124517 -3.64204220271 1.69185279021
-1.69655531818 -0.929211531824 1.95966452184
1.47265347428 -3.44196974083 1.74377601271
0.143194289536 -0.28352957945 2.81928919159
-4.57338597413 0.117352577292 3.68026808005
-4.57673199485 -1.27000348169 4.95718760158
-4.4424780083 0.624090586048 4.22263258759
-1.27265064264 -3.58672556891 1.14104513469
-3.59972447477 0.55117449529 2.96767371343
-2.4389362877 -0.320027724289 -1.19041127864
-5.14212315871 -0.114088987003 4.49553125303
-3.1088260719 0.222741763918 1.55687132281
-0.799050809651 -0.390866921076 2.86800925865
-2.12789357849 0.719618763726 5.39561125823
-2.43982368756 0.485327328735 4.49051761527
-4.61302154492 0.664551170726 3.09718679617
-2.65170098189 -2.91595480164 5.18156582639
-0.939999530665 -0.350541432394 5.24566011424
1.1142032798 0.42038945602 4.43253057022
1.28298746481 -1.51467168723 1.980419074
-0.942023949962 -0.32967002866 5.19840501121
-0.771678042112 -0.0511671768905 2.87590585007
-1.57496333519 0.284694535712 2.88014948452
-2.03579003263 0.190711218257 0.741819820647
-2.90504448582 0.795028467084 0.76457649742
-2.84763707589 0.326881883506 2.90619261965
-2.73047127501 0.667882916602 -1.29215706774
-1.52889816485 0.549726016801 -1.28462500561
-1.02444686523 0.66348860976 -0.273609715092
-1.23591216104 0.582192113282 -1.30003445703
0.165029488269 0.200663552793 -0.909677871346
-0.00512302399893 -0.246782206992 2.78030678994
-1.22051311825 0.32786571546 -0.375782044499
-1.36858061512 0.552085507437 -1.42457018298
0.149769042699 -0.155708836244 2.73407739348
-0.149371677249 0.00209436324751 1.32455885889
0.171947480885 0.164126487441 1.33586524673
-0.880902474357 0.106654516897 1.94084604795
1.02069598972 -0.0114229108963 1.46335713815
-4.62666374508 -0.657404234127 0.0919433835009
-3.44171542624 0.698783920306 0.5859159636
-3.03432708871 0.264005905711 2.67628254979
-2.88253722148 0.725437759046 5.16563500697
-3.04480783951 -0.0888149862346 2.56390909742
-3.10065839485 0.55917739772 2.88362176912
-3.48911619329 0.232819989409 2.89968730984
-0.653812971472 -3.21229948127 5.32448161242
1.2344844344 -2.00519239829 2.34555054403
-0.788216254384 0.0916495202666 1.05499309277
-0.859591146263 -2.63261005762 5.32744301579
-3.4270755292 0.689827678862 0.213566621301
-5.78906203616 -2.10890593803 3.95685690721
-4.55829895571 0.152605821012 2.2965867056
-3.34720701606 0.688193462563 0.0116344107505
-3.08942606038 -0.228754123594 2.11839709796
0.947221601296 -15.4763926849 -4.21367330668
1.22808752019 0.392072288598 3.96417517355
-0.604243695051 0.0590581583289 2.87002945223
-0.668542899064 -0.0424577540789 2.86971708034
0.932426076943 -0.999956406855 5.14936809537
-4.34249369937 -0.211002432101 1.10079203175
-0.537689909947 0.103941986892 2.87018793245
-0.609898941622 0.11266550061 2.87014661582
-4.06070386734 -0.0878175674919 5.22845019633
-3.50365480976 -0.321969734026 5.22621254774
-4.22179534023 -1.67999255046 5.25813725775
-4.30937046901 -0.0425920275775 -1.09977337627
-4.33227250076 -0.398403220595 5.23591170321
-4.38495201218 -0.115818186177 -1.08999864089
-3.2016956834 0.485531122548 5.21885664155
1.73558997359 -4.1408430506 -1.49958420285
1.21191913019 0.479426255468 3.15108863249
-1.12503721016 0.265386426013 2.87361391341
-1.03342089413 0.295144542105 5.22806329001
-1.71968725231 0.487376373382 0.710236826912
0.401304032099 0.0889099071193 5.20016022999
-0.479365280403 -3.53876986934 5.33239780008
-2.26404920354 -0.303798265075 5.10858035267
-3.30751094394 -1.86036878696 -0.705806081062
0.257105289921 -0.13800806191 5.34337725768
0.985728201815 0.59206192536 1.39395360731
1.94530649111 -2.88885965817 2.45940195084
-4.60284217654 0.598811970248 2.9749240686
0.589542084559 -0.820465560569 -1.91124195458
1.68667246904 -1.63892672332 1.54459626113
1.26256786448 -0.414313262451 4.64787886271
-4.67841231158 -0.120617177158 -0.0880558095049
1.22212073566 0.162071307827 4.20152272329
-0.91166112665 -0.569755120471 2.78579286048
-4.40876435602 0.778217809181 3.74068447588
-1.28214588091 -0.199474825203 5.17383031653
-1.60890472453 0.846880389485 2.88473204322
-2.47288691973 0.631417355027 0.738214834804
0.440424169763 -0.722271752338 -0.813863979324
0.215414521605 0.149820816923 5.23327397673
-2.1974748904 0.0157811393985 2.91880063726
-1.93447569161 -0.304598247959 -1.28457868373
-2.90473163454 -0.573151953863 -1.18919183982
-0.0696919402729 0.544195234649 5.32033471066
0.477235673267 -5.69327500468 0.635305795534
-2.72850811356 -0.428288871561 -1.1817579832
-0.649614762145 0.142424622364 2.87269395954
1.19592807371 -1.05501447267 4.28844205755
-4.51306660873 -0.0109636350172 2.6396944838
-4.60862387018 -0.0317412135032 1.31767847885
-4.57267960571 0.81337003596 1.59206696702
-3.05143444195 -0.0815441518929 1.90229041484
-3.08450843564 0.117043599505 1.57615695769
-4.97449643915 0.782261240914 1.6725793592
-4.58066620221 -0.311508680761 2.3859153703
1.17184701557 -1.01059026973 1.05238747752
-4.96570155788 0.266753869749 1.71951228863
-4.02135744803 -2.50923397204 -0.608397956864
-4.48490420438 0.476145750728 3.56533629912
-3.03442730852 0.243620062952 2.67462775807
-4.30950374451 -6.89008217841 0.241858513713
-0.719587190219 0.563728775935 2.80360892838
0.249956203877 -0.0690339799606 2.83444520268
-3.56920496156 0.332284333839 5.19086674553
-2.29590358919 0.205275644352 3.07607310507
-0.949797286541 -0.632906979569 -0.553959824728
-4.45647243461 0.151835272272 2.90870120301
-2.87323953742 -0.850005995135 1.12701262994
0.0673879913771 0.351193967783 2.96892412998
-0.379647336177 0.795144577503 -1.07002713864
-3.29839582421 -0.449046476698 5.17323972591
1.19401762363 -0.121349737669 2.26887057243
-0.432946981642 0.470220225571 2.86970931587
-1.44527547803 -2.44875507798 2.79455468749
0.372498130884 -0.00993563751584 -0.847394112426
-3.01388698734 0.132062749272 0.398249893518
0.319331737569 0.331716782054 2.76255199757
-1.90928307138 0.037954194008 0.708401688704
-0.526807285363 0.79776059084 -1.0848714512
-2.79295802781 0.116459402925 -1.17132293245
-1.12120956815 0.771425356146 -0.264453616678
1.18552117127 0.559393154388 3.37580061763
1.58685219131 -1.8482676211 1.26473367181
-0.559348327018 -0.316264597583 2.76871161935
-3.82714168839 -0.0377877426084 -1.13130186511
-0.788261528487 -0.127748218362 1.98691105866
-3.29635402032 0.519438868217 -1.13816885105
-4.62717832626 -0.446030815806 0.0834191135606
1.32205044743 -1.88041867656 1.55324993381
1.18225630024 -0.109836128161 2.01360598478
