#.PCD v.7 - Point Cloud Data file format
VERSION .7
FIELDS x y z
SIZE 4 4 4
TYPE F F F
COUNT 1 1 1
WIDTH 1072
HEIGHT 1
VIEWPOINT 0 0 0 1 0 0 0
POINTS 1072
DATA ascii
-1.20048544982 0.095452550347 0.39063687303
-1.46400341051 -0.483449127786 0.209310027441
-3.19018904161 -0.0605989267375 3.17327967967
-2.59931486932 0.351992889232 5.88472098569
-3.18879640458 -0.0701702957713 3.17237224038
-3.64848245148 0.101258424607 4.19835905227
0.280915609502 -0.670942056457 3.0484844623
-2.44430127005 -2.75884430793 3.07716497345
-3.38646420304 0.372501061564 0.0122195136866
-3.8914814695 0.536379941112 -0.521022807062
1.29038313755 -0.385904129327 3.24837183155
-5.48643291211 0.602930531492 5.81989344285
-3.18701707919 -0.272088533144 2.55217551825
-3.13482796462 0.570801429192 3.42410885258
1.62717220486 -0.853163188104 1.49272888223
1.07949351794 0.392488978323 2.10500733462
-0.195363738912 -1.77426520263 6.05294885181
-1.46002017672 0.364576033756 -0.540213238055
-0.705705742085 -0.801960883296 -0.582114053626
-4.1349786948 0.493310115341 2.16522691854
-4.709592182 -2.34654286132 3.10953690567
-1.95040482812 -0.468422155271 3.56841747498
-1.37685953636 -1.36359633566 0.922820986918
-5.51205554225 -1.25082488238 4.00722648972
1.31367696969 -1.304176262 3.95325957061
-2.25082050325 -0.911154939549 0.410156622883
-1.36907420464 -1.8543711941 -1.23322844651
-1.00159215583 -2.19097770113 -1.54423329871
-1.6770602642 -2.0209733943 -1.0469531477
-4.78294704544 0.741788464675 2.82168553236
-3.24545714415 -0.0537562922969 1.91450909794
1.13831121087 0.132190112445 -0.0951774890081
-4.73397861456 0.720483833345 1.84197121861
-3.17670258363 0.115452424044 1.94246530023
-4.84808845047 -0.454394700362 2.89651019195
-4.84987603221 -0.450101071608 2.72750123711
-5.46686004288 0.519761337042 5.49657037444
-4.74993184596 0.768499693494 2.58487687686
-5.19126920083 0.152120728852 2.17849540708
-2.66298072087 0.0412209148822 -0.718726589436
-1.35013892189 0.232396349061 -2.55488522723
-4.97230922795 -6.93143715437 -0.583048558353
-4.06332054791 -2.66432879385 3.94300115838
-3.65705070583 -0.550925327902 4.40021265533
-3.21538171955 -0.356920358215 5.82390759128
-5.48028406908 -0.226429218501 4.15851538059
0.177604266078 -0.354147470611 3.2590332233
1.12129048995 0.514223296574 0.590874089802
1.63775754204 -6.4707772979 -2.14944442518
-1.02287234141 0.433115838338 0.847857504203
1.12399340491 0.51862047962 0.41168743867
-1.67102274285 -0.0219916721568 3.59465591481
-2.49053251897 -1.4437070807 2.75674251842
1.96510360589 -3.5309184419 7.46988370645
-1.00873358882 0.373278261232 2.70560910936
1.35503215417 -0.530249454171 5.3797723305
1.20219076417 -0.0605940779527 1.75310091863
-0.950722607378 0.359239910252 1.53058192155
0.871177128065 -0.0752078748856 0.858636772687
-1.06568594043 -1.46492257779 5.84971679827
0.199390732345 -0.0806310211745 3.48512682495
-6.31066938532 -7.29345139866 2.8942451393
-6.0202779891 -4.97807490239 2.80082381951
-2.33209405688 0.475471321515 -0.966609200858
-2.47082355607 0.561527106345 5.83749264245
-2.1922207066 0.244315713167 3.53691254382
1.32750785579 -7.51934023841 0.490260979244
0.806782936191 -1.67643185474 -1.78352296412
-2.61334219099 -0.582984668803 3.86321392323
1.11297482672 0.382772046623 0.660268946299
-0.734088275994 -2.25503368 -1.77782701514
-4.15693273149 -0.825814233245 6.14396264363
1.1209722067 0.101407311479 0.911057903812
-1.36219855687 0.0602519866809 5.92997536391
-2.30834682645 -2.09530022173 2.89588717356
-3.14090557529 0.555516082269 3.42339311246
-1.91975204246 0.0796119654437 1.20797350543
0.125489214072 -0.832407994752 3.5070550462
-2.34274913575 0.481644661331 3.515345867
-1.82122428617 -2.3847275593 2.02407197296
-1.88453427267 -1.93555787051 2.0886564214
0.331716706332 0.344065358978 5.84601503721
-2.1772536181 -0.388153678639 3.53764685528
1.24533534238 -0.414979321981 3.43265791521
1.23794550628 -0.823568289158 3.50687801995
-4.08246897346 -2.45651136266 -0.56573938753
-3.11599542856 -0.980445761248 1.6858753118
-3.16971370428 -1.96565026136 1.60357161826
-1.22220314673 -0.705959052281 -0.477191693035
-2.65126577048 -1.21653011469 -0.708944232444
-3.0552723821 -0.210306895079 -0.671081636149
-1.42806236246 0.376991222357 0.920775721253
1.23567267562 0.128779766929 2.93417484032
0.709099684075 -2.47741764202 4.9189539863
-3.88615720795 -0.508451599201 -0.334543831681
-5.62900199392 -3.89052414606 5.75885515338
-3.10505970591 -0.741207912685 4.26664397734
-3.24681471065 -0.22619372195 2.40361248452
1.06995250696 0.199175729433 1.83334019021
0.19120888597 -0.391015270719 3.26890419896
-1.58912918247 -0.560328282445 5.87724048632
-3.02340940434 -2.51564141523 3.5642409393
-3.14573953112 -1.75150060424 3.36875362015
-2.47251958526 -2.21326736668 2.90624486915
-3.07353089245 -2.13615089275 3.63506647212
-4.72754259859 -0.0824213861214 2.18955662144
-3.04245086158 -2.06769203504 3.41028395316
0.783984813097 -1.98942605831 5.17051688435
0.997889444101 -1.03624898179 5.7281560318
1.12462000498 -0.0871137185978 0.838043045631
-3.17814371119 0.671524403143 1.29775786329
-4.85504456357 -0.0545376439519 1.64998571308
-3.4484580646 0.339111276762 0.335630346808
-4.45376992274 -1.04842641104 -0.699359716295
-2.23045986591 -1.61506275894 3.48980654598
-0.0219288489122 -0.180101432285 2.44194292877
-4.27757501048 -0.681612369825 5.81518172178
-5.50416529618 -0.366314582646 5.11510735735
-1.01848201653 0.520540973075 3.0873817928
-5.11574118963 -1.50087709972 3.99316414645
-0.652310713171 -2.80597401251 -0.850215343658
1.22478800129 0.456287934602 3.80243414121
0.460659185624 0.272343280247 3.80759539497
-3.95670852235 0.593822886555 -0.491522656405
-3.24395466992 0.308386570446 2.40475966429
-1.706825273 0.32780566662 3.59373285627
-1.75367130383 0.17375111445 3.60221314405
-1.66518324625 -0.0315654315468 3.58520954616
-4.20860810195 -0.424007877959 2.38706787839
-1.54813145181 -3.03492641391 3.30578942225
-2.42157376591 -0.000947830980474 3.58622169824
-1.87416708246 -0.479065435877 1.20108144382
-1.58788768094 -0.654028976614 3.4827341761
-1.00480973705 -0.37652523958 1.16568815459
0.0632604995818 -0.638764391901 5.93891819831
-1.43444795268 0.110708363221 1.20589480285
-3.25575980159 0.324549863527 0.124670243031
1.25362428315 -0.657219185687 2.26503428805
-2.23909996152 -1.32792998146 2.71968581256
-3.3345114631 -0.346939210241 5.81745889728
-3.08036677555 0.452602050543 6.09920831958
-2.51441886236 -1.36781464904 2.84491764133
-3.21642995063 0.108460281891 5.81990335248
-0.942760498959 -0.242284097643 3.40497046637
1.03233046142 0.014605292565 1.87782511124
-3.58557934954 -0.0524994972587 -0.67538898052
-2.67764142336 -4.18529552182 2.95415699017
-2.14929316239 -0.515200395482 0.270969691587
-3.48878464011 0.613725356949 3.38179136479
-1.07967676545 -1.03215099429 3.93870640322
-0.715998515692 0.235544320411 -2.21191932951
1.17715213826 0.346948070429 4.3056026998
-3.55578289335 -0.489802383698 5.82122492815
-1.65908663036 -3.69588980397 2.84104415964
-0.870974125557 -0.32320734312 0.8719034483
-3.52290814026 -0.929091225339 1.46133911102
-2.48068066045 -0.192450298638 -0.921312271743
-0.333794858019 -0.350817641288 -0.508614269389
-2.36357504287 -0.109132866085 3.44044305864
-3.24978902281 -0.478910947598 5.82555109574
-1.02128404591 -0.577760788616 5.88994737031
-1.9141407538 -2.6622551769 3.37055848079
1.31752961011 -0.585259428948 5.67560049893
0.154779410931 -0.379687482306 3.30033204293
-1.62256642206 -0.524474372947 5.85087647744
0.716709358972 -0.38846791687 3.58218273708
-1.72298236294 -2.00374077831 2.21392646536
-4.7469730792 -1.01144828032 3.15412150228
-0.0472711911699 -0.843451022255 2.77038765358
-1.15062769305 -0.731502245146 -0.91866322349
-3.63449357712 -2.44723687777 -0.737017668132
-1.43744332924 -1.40803530043 2.00154736528
-1.0071251928 -0.33897696792 5.87097256958
1.12239394661 -0.431268013393 2.21639223267
-2.56008433505 -3.78677939454 1.6638482364
-1.44489577298 0.42716797592 -0.554581176821
-3.44521000575 -0.893778787612 1.41945988837
-2.5663650161 -1.32459427603 1.61950437894
-1.68682647928 0.0336261347368 1.20126484255
-2.31185338006 0.564176355049 -0.746981916988
-2.74275852745 -1.53080285941 2.45949195141
-2.21794552239 -3.00582319097 3.55723923608
-6.34952492679 -2.998298936 3.16839820202
-1.12125486677 -1.27997459421 1.87951616426
-1.01529163999 -0.328468965991 2.54803231783
-3.18763060195 -0.619782663961 4.00411731848
-0.849305630061 -0.354039006779 0.38281168788
-0.790366461618 0.272852910876 1.33263521484
-3.87137231799 -0.313800729978 4.29259568234
0.955813530487 0.204040179011 0.413034314863
1.0078409966 0.395566848305 0.663062805297
0.20905589412 0.161515363226 4.87679190327
1.13321925907 -0.345062556088 0.444300497126
-3.38986213878 -1.15026280007 5.90129569827
-0.00275498093349 -0.760738576715 2.73981113827
-2.45632220187 -4.0821410873 3.5535255234
-2.08479714435 -3.04490683288 2.75161533377
-1.35344338166 -3.03022721161 2.59171965643
1.26153771804 -0.194854597134 3.28927684816
-3.59616098094 -0.499607888132 -0.955757954856
1.26040102603 -0.144710235095 3.28926319081
-0.802377972375 -0.108977911498 -0.581547070193
1.04434536171 -0.194425440134 1.43657661
1.02413502228 -0.352994358165 1.03162930832
-2.66692153433 -1.37922026774 1.71145332969
1.04554104134 0.36211275695 1.01644383029
-0.312767932594 -0.660305006277 2.1221430509
-1.0064100103 -0.28260915671 1.0952141512
-0.811477283212 -0.739902894161 4.5154181617
-4.24506802392 -1.17327836816 2.28142741798
0.357098708473 0.423759871597 3.59666683715
-2.87838304123 -0.074290050665 1.29003493192
0.815097283275 0.228151262274 3.48395199937
-2.09579315542 0.121248606212 5.84142173419
0.997156428259 -0.151071532 0.433550767412
0.143192901062 -0.608508847974 -0.35739809506
-0.665857408536 -0.358889979909 5.88719579678
-3.12151068693 -1.47740427966 -0.990248110417
-3.09219248942 -0.510682920091 -0.941013517604
-5.71586944648 -5.02637441001 2.82106397777
-1.27588262478 -0.23685023252 -0.545000716388
-1.71433115798 0.386201353893 3.52349991465
-3.50625842399 0.103241919303 -0.666341901571
-3.18738902279 -0.375703460798 1.26796056869
-1.3195168723 -0.587244734295 -0.594203747393
-0.917331400622 -0.0893418059855 0.891735643103
-0.873473154167 0.334742493591 0.847799019659
-1.02064218903 0.505859655927 0.533991414358
-1.01462085746 -0.214791707513 0.514895912848
1.12553096328 0.554693771767 0.222072473228
-4.61913641251 -3.50866584188 1.6310417198
-3.46194394289 0.122452543737 5.77697044369
0.475600698107 -0.196816536232 -0.556672519999
-1.88341208104 0.0624238963322 1.19700019277
-1.91416752693 -2.79357744166 3.12692060965
-3.62953746707 0.578409595747 3.48407797619
-4.4537618737 -0.452770187976 0.117157231661
-1.62721655973 -0.909343433238 0.196262390175
-1.40378112432 -1.11686179231 -0.562204991312
-1.20212140971 -2.35933167925 1.8443848948
-2.0108658547 -1.3819933392 4.92428365736
-3.10084225407 -0.177190228404 3.47843549287
-1.13082465718 -2.89923408018 2.60689632761
-1.11522152636 -3.10951584944 2.52493901985
-1.47977395243 -2.29867900232 2.63540003623
-0.641871207535 0.309009823561 -2.14778816239
-3.27812852382 -0.837762046349 5.84198054417
-3.2519046019 -0.0364972399991 0.120182559639
-1.43508373517 0.20264307701 1.21726940133
0.560366063209 -1.26564660915 -0.280607287694
-3.25656222538 0.655269103156 0.162748857373
0.501747193097 -0.495474418418 3.5561855003
-0.585474170609 -1.74620541831 5.66704239604
-3.26546455222 -2.51841438532 5.04801052511
-0.166198149816 -0.71102074345 6.15076278359
-1.369592282 -0.687123825611 0.795056192183
-4.64251966402 -2.1317257348 2.62434910657
1.03466092471 0.0374897110644 1.58247781038
-0.845047822015 0.216961429621 0.391083997077
-3.32722375039 -4.37230123356 3.59735263434
1.05619227632 0.402796892179 1.71414244811
-3.06452392462 -1.99801163625 3.47117256289
1.02509117764 0.325701557023 0.643630483245
-2.63131620005 -5.10019346938 2.84762547797
1.12218162458 0.11546404915 0.623135973386
1.12728962661 0.144763224759 0.456666554552
1.1218213522 0.359477409447 0.600413211294
0.492184686504 -2.38492896676 5.85194651024
1.11738471375 -0.0754202150113 0.946123934792
0.955716784727 -0.594670418249 6.0682919002
-3.49427329445 -1.21971833307 5.82330338589
-3.66714569007 -1.48946135519 5.92385064419
-3.92929206516 -1.25163978803 5.9466138709
-1.41234661325 -2.50507132038 3.2156298172
-3.67158128 0.691975663677 5.88995222876
-4.81156196023 -1.11726448824 1.53767500482
-2.79775956733 -1.4505997518 1.98907598671
-3.91034629097 -0.381787496305 5.87388869228
-3.61744957618 0.728063191416 3.83040481111
-0.690141675888 0.186764339681 4.46967744393
-3.18353336919 -0.274191764022 2.51566224228
0.0115718243472 0.459309991945 2.42172167042
-5.52739930558 0.0797166455473 4.50664105464
-3.16751897218 -2.83505135573 -1.2866263495
-3.35021660325 0.0230331603736 0.17011625822
-3.1843782977 -0.220797285976 0.600519381977
-2.48087526295 0.0338671662836 -0.932993129606
0.551808562046 -2.36173038037 -0.886359746006
-2.80188834188 -0.0663021569258 1.17369326556
-2.96754837865 -0.959054022408 0.440995110252
-4.81960454208 -0.0658668137122 2.77864835648
-1.06125978915 -2.0330866757 -0.778102972135
-4.78535406461 0.0251909792498 1.82386070864
-4.80955811621 -0.174408537416 1.60272869357
-3.17535113232 -0.0469761451216 1.60583559548
-3.8162852446 -0.32698847838 4.27435923132
1.39081850464 -0.968449423094 0.524926231742
-3.64238956664 0.0899198514435 -0.681621306754
1.08336563012 -0.230376010181 1.38781228154
-2.5313833283 -0.344787192181 -0.944402679131
-1.80133472499 -0.709601966076 0.430277823385
-2.17647420128 -3.74268720999 -0.931385646515
-0.0955561646331 -4.88890820409 -1.24252908085
-2.44423086889 -1.20969869846 -0.754171167152
-4.28357204054 -0.564492439161 -0.173740422699
-3.1916112708 0.600160131178 -0.660398444383
-3.11977572286 -3.20566828021 1.93706788088
-0.342185889593 -0.371862572735 -0.432234535005
1.58840696624 -3.90531974488 2.42070965964
-3.70311181744 -1.5054929958 -1.05485952523
-5.63038302816 -0.48961621911 5.35984893461
-4.87618380584 -0.894146140468 2.72825608823
0.661205383367 -0.377547251723 4.57200785856
1.25035979867 0.170525478232 2.09070173883
1.07222423312 -0.196361408468 1.30048959893
-1.5531297938 -0.548467899874 5.86238413557
1.11883294131 0.0925138818978 0.948288287378
-0.808393566396 -1.64206737069 -2.0273112043
1.12667782878 0.0893452728385 0.235882785754
-1.31494171002 -0.830107327457 0.796747266818
-2.05806018856 0.202120135791 5.05140184329
-5.31812558559 0.0890082788781 4.46558831409
-3.72307550433 -0.239604091585 -0.67820095828
-1.54028138712 -0.408127999753 0.202518953328
-3.70190894829 -0.392537313684 -0.602075918245
1.10597129773 -0.487097653811 1.11457842951
-1.94370200829 0.180242555577 3.59917575003
-3.78952958622 -0.469739462146 5.85370935419
-5.64140129393 -1.15063009958 4.41461999566
-2.01008284336 0.389078025714 0.078397063581
-2.16215306633 -0.43079908832 3.5919566672
-2.27072521976 -2.42466015593 -0.891038765544
-2.13503772713 -2.11885303783 2.69327074681
-1.05368018254 -0.596553452273 3.18222097671
-1.88036393624 -0.529014426061 1.19115824804
-0.9221569351 0.146024906333 2.13594230741
-0.973408949815 -0.146079926819 2.12520757984
1.89758824807 -0.19257383808 0.782224479561
-2.98792792139 -3.78632011497 2.00547601152
-2.57624649655 -1.55485424978 5.86628592683
-3.65819620186 0.657126721665 0.312026263731
-1.10594000891 0.602927899198 1.30855386801
-2.52650230148 -0.216264496112 3.53313575704
-3.04706302511 -3.69489377469 1.83442356748
-2.39246446335 -1.46896089728 2.79811417037
-1.00670183584 -0.368279990378 3.35768739971
-1.53364123352 -1.67880295713 0.789783093193
-1.02067419621 -0.247262298357 2.43135880523
1.09556908493 -0.399662125515 1.73629144885
-0.947139387519 -0.491635131061 -0.647303187482
-1.71764357231 -5.97500291372 3.37284754678
-4.70233204146 0.622605910761 5.86932417629
-1.11816467749 -1.30051286056 1.02276789013
-2.10464889616 -0.349298439087 5.84985254239
-0.999912835043 -0.154644160861 3.13082768656
-1.32342794701 -0.0362778795026 5.87424321556
-1.0353269857 -0.926516318405 1.98998629081
0.204350488181 -0.0386904675491 3.32966115075
-0.0172538057907 -0.293869776113 2.4952429773
-2.00031581534 0.292167904521 3.54675262219
0.999857171563 -1.24289144995 4.83582574153
0.511693151616 0.118259651761 5.90856446329
-4.29768257399 -0.438941473515 -0.136483512523
0.940704231617 -2.70154970482 5.85205779596
1.14088430907 -0.582354324177 -0.331866642962
1.24970753662 0.000268419458643 2.98938133772
-0.17044678731 -0.257616635495 2.27715183357
1.20227447752 0.328073062847 3.62032329267
-3.05237283822 0.419038484903 4.22833591417
1.19754891172 -1.32561290669 3.6414646525
-2.32924185661 0.685227900439 -0.917034815727
-1.62909875621 -5.34355015485 2.99401781922
-2.53122164883 -0.388874309332 -0.940533723
-4.71658864762 0.431816995713 2.54854867252
-3.50831235285 -0.0858823953265 -0.667106111415
-3.17438836003 0.271945882165 3.1232669599
-2.5289100774 -1.10246732496 5.75961937485
-2.99511720129 -0.179388138888 -0.594461438814
-5.48788556776 -0.222298108342 5.19222295584
-2.48369353402 0.0344721582721 -0.932509372518
-2.32024509243 0.070766378935 1.20095772144
1.0880253109 -0.391635276621 1.69678433848
-1.70523429193 -2.20629084098 1.83561171023
-3.45851264586 0.107032330796 -0.677738624321
-3.02498919577 -0.116557827847 -0.688696308646
-2.28453298673 -0.0850642483714 1.21582845674
-2.5370633564 0.073051776561 1.19630133054
1.12021381694 0.117517780507 0.733260530249
-2.7074857472 -0.130621233659 -0.688238388731
-3.23593006397 0.16929522 2.13892983544
1.26719022936 -0.224672361643 3.02287048962
1.26703783795 -0.276448390238 3.01483314232
1.30725948468 -0.965276904757 2.32825955938
-1.5016220337 0.657343193758 5.86549506871
-5.65085369453 -1.89298572294 4.08093719518
-3.24087363529 0.172113646506 2.14396684052
-4.75697246446 -1.01686802737 1.68888222357
-2.77160444578 -2.36148625969 5.8218894101
-4.74734482826 -1.00863931895 1.70601712482
-3.26989670896 0.596286134472 -0.663485416951
-4.96656187122 -0.102620510991 1.63640429135
-2.27380567846 -0.0604395947719 3.53505312897
-0.961030963788 -1.15197510419 -0.926332264459
-2.52616589081 -1.40312566862 2.85167457716
-1.84862002213 -4.06563387925 2.41307173558
-3.69925784167 -0.529956822173 6.03464744883
-1.02113763375 -0.238747354608 0.587346571188
2.12858185006 -6.97364851467 -0.855558298582
-1.91997909446 -2.56308555098 -1.43228918672
-1.18569238985 -1.60215712972 -0.716392909363
-1.19388082999 -0.902070822643 -0.611906961966
-1.50332772909 -1.15858150274 -0.444379807265
1.12855852858 0.3529674786 -0.169032492858
1.12488697433 0.540304812533 0.49203049531
1.11306240026 -0.00690133649265 0.730447746602
1.23479557341 -0.310719826486 4.72106252085
1.11748237386 -0.0494746736882 1.11388488355
1.26828888841 -0.0916754082739 1.1306355032
1.12489858669 -0.235454372852 0.816479938518
-2.62312216069 -0.126367891035 -0.672029594762
-4.18442623597 -0.371235577517 5.87381165858
-1.96862601515 -2.83022010674 3.50211411768
-0.904558470868 -0.451828913468 5.9628340428
1.10888368608 -0.394749537557 1.26995720663
-0.253601696801 0.462418439133 2.01957392209
-0.911652898213 -0.114619580635 5.88218178878
0.158470926259 -0.154050275465 3.41520915579
-1.52250196987 -0.199768714178 3.46301846004
27.4547798686 18.3569517116 11.4578092284
-0.29844670763 -0.5806875013 6.00516908111
-1.38391946537 -1.23406528655 1.90482820094
-3.50334326489 -0.335835220339 -0.623823357841
-5.62098819275 -0.86396596283 3.74004585471
-5.88312780632 -4.44078427261 6.03863203434
-3.21040423712 0.652283088839 -0.815787188157
-1.49790459552 -2.61693312428 2.15402462863
-3.56767851528 -0.182770338466 -0.674200559633
-2.86086269555 -0.18943144578 -0.687813588549
-1.6207255225 -1.57461313906 2.03682040686
-2.73929563624 0.303495792882 -1.38039813974
0.804376731271 -0.664004171928 5.95709528213
-3.02255510666 0.498944986109 -0.655151800489
0.264652625403 -0.529916357761 3.30368234694
0.0816708682768 -0.111433908944 3.61116014926
-0.532473714164 -0.786940377446 5.9656179489
-4.80175932474 -0.959022738901 1.53453407849
-1.13556459671 -0.321935949323 5.87097780142
-2.65935815741 -0.493036399067 5.87812940381
-2.85231926894 0.230390671607 -0.688029377668
-2.71879336596 -1.71331798286 5.95082898883
-3.43803426772 0.397036823853 -2.85624653919
-0.608484033679 -0.911424774737 5.94168980867
-1.90390348632 -0.496683977447 3.45514903476
-1.41485168445 -2.23654004011 2.73684783547
0.57676288593 -0.82743660164 3.67028306246
1.26777480398 -0.422362612137 3.12490709813
-0.827374360284 -0.613180058002 1.34410441984
-2.23294985484 -0.281611802444 5.85110161024
-3.24459744318 0.0394236677861 5.83053053609
-3.12063061699 0.613902315981 -0.731516967512
-3.18867012553 0.538370071727 1.53284069042
1.20249456629 0.0647775450719 2.74901475239
-1.97130337182 0.157022696732 -1.04719344014
-1.9001365798 0.141552429204 -1.02895595582
-5.55957449938 0.186463853467 3.66207159126
-2.60219609841 -5.66598640859 3.16619795717
-4.90781524782 -0.435118412199 2.79885890105
-2.3313570163 -0.432819605011 3.5579856385
-3.14151137367 -0.447476923825 5.8191526492
-3.00365171223 0.00208301025576 5.81237757558
-1.59501747073 -0.731568196915 6.14137468164
-2.52638237854 -0.555967377797 -0.812841790253
-5.47102970376 -0.861258067791 4.4247406656
1.10599437765 -0.511332660005 0.900936332829
1.11531081527 0.0120480290735 0.802863423409
-6.26160876435 -3.09450300392 3.60971043924
-1.2338201883 0.182896255312 3.58952116407
-2.17318431736 0.00802218541494 5.84691055471
-3.24153215037 0.0387162278967 0.797554127533
-1.61031166303 0.555697343277 3.52756012388
-1.07353985341 0.173797732465 3.52500570857
-1.406876594 -2.20407779386 2.10448875557
0.963197144261 -0.529774961078 4.58962147368
-1.46760762886 0.527928092831 3.52510609255
1.28477165498 -0.279797439208 2.75568443796
-0.971059274649 0.547470054764 1.21991763838
-1.35011194674 -0.515354323329 -0.482770985656
-5.13719254841 -3.24778135442 -0.231837439726
-1.43568243632 -0.345941903903 1.20559006218
-4.81125798355 -1.92516234599 5.24214408166
-3.17736739843 -0.0837024791265 2.97935990522
-0.853673110537 0.556066212481 1.21587754469
-0.876478390032 -0.0978759168456 1.23023489081
-0.96006239464 -0.10378050039 1.30232890022
1.09905974598 0.149540321134 1.27821487867
-1.01236393958 0.259624801145 0.184761742991
-2.66648260865 -1.12857295737 1.4903424285
-3.55712309448 0.665620814148 3.3371140211
1.12031745327 -0.275423639562 0.801919263245
-0.706365000678 0.248146921129 -1.74874499806
-0.87954431071 -0.3533457492 1.22574110759
-0.86933146033 -0.245076534244 1.22947889373
-3.17791440751 -0.139904852951 1.65359284753
-4.11394814651 -0.585564551578 -0.480003743609
-3.20587167269 0.549531389546 -0.987002977984
-1.84251101055 -3.01135662543 -2.82083027146
-0.313398182182 -0.409053133905 -0.390021840628
-0.738366286816 0.423625906741 1.62984979669
0.893426120161 -1.26390761745 4.56864337963
-1.31395665794 -0.500949811739 3.50508589449
-0.597236086606 -0.527892402004 5.88432407655
0.584134477718 -0.219174403978 -0.146362255759
0.368932950254 -0.445021356009 6.02967966702
-0.75662542373 -0.789377126034 1.6185188927
-2.7484786419 -0.313278670568 1.17820323133
-0.995130234858 0.288205938718 3.37289249141
1.07889440748 -0.3888024494 1.89568657574
1.27989741597 -0.282874406667 2.75432669249
-4.97853247589 0.0346103873455 1.64978845842
-2.88616993796 -0.0140707425511 1.17136653273
1.27052485225 -0.315448920065 3.1510786922
1.02217549669 0.136720727282 0.449682840085
1.08618903014 0.234975748956 0.796001796318
-1.69194360286 -1.46623314194 0.227430095767
-3.04079169263 -0.211173191352 1.1633259746
1.03742903323 0.0359242664374 1.71814596202
1.00699967105 -0.41426444515 1.69809725674
-4.45124692354 0.0516529392569 0.210076492283
-3.73409781209 -0.120728212161 -0.681006215089
-1.06527606588 -3.23954327225 2.66710436895
-4.39908425213 -0.489722734996 0.0205732893045
-0.996388811828 0.209008527076 3.50210183536
-2.9532172362 -0.02664067769 5.83706002941
7.77911187469 -7.44922335598 1.90849280913
1.29504592002 -0.579491283178 2.45420252498
-2.43232370095 0.367252435969 5.82656680694
-1.49358326113 -1.70750735988 0.978626741602
-2.3778517452 -0.584538591634 5.81547209389
-3.19305509138 -1.68021970732 3.66263898869
-3.6985754399 0.0885110839156 4.10443039052
-2.84627195632 0.259720470077 5.8321829327
-2.68245708787 -0.136813302276 5.83695271478
-3.30344536857 -0.552017083024 3.5182058941
1.05176106821 0.375629679758 1.49646839133
1.18731936512 0.333440843655 4.09481075462
-1.66893023038 0.0752773794757 -1.009709524
1.02804116452 -0.295781973988 1.30726746105
1.24772403521 -0.0513772036424 2.1215381596
0.105718002919 0.61214913209 2.3267728067
-2.0535216848 -0.310644578093 5.85433921202
1.0384959103 -0.00780953287155 1.37352817224
0.276888484827 -0.688613780402 3.06725762695
-0.700122243751 -0.384950558297 5.89011634844
1.25143773138 -0.0283520052096 3.39013309892
0.188384639853 0.0735596171082 5.9398602661
0.925652919335 -1.49471839144 -1.59143142912
-4.6983501364 -1.96647707398 0.00301766669113
-2.95503768515 -2.26245135793 3.30799012931
-3.63872819586 -0.678342178781 5.83499488456
-3.48788232306 0.0324282855014 0.362295573691
-0.749546742071 -1.01749137775 0.335274926229
1.72633398671 -11.4270018641 0.739877597546
-3.04698516154 -2.26903286859 3.29089319998
-4.88287476881 -4.16192622261 2.11079911401
1.6775771306 -11.1686747615 1.34661848598
-3.02258594368 0.276364196334 -0.704246047971
-2.82905731713 0.185572707629 -0.702060467
-1.23002046173 0.0250785958399 1.22066364373
-1.14737269382 -0.259963653061 0.354296968355
-0.205104015159 0.348390346726 -1.34070198101
-4.16186401098 -0.329339089915 2.39548199082
-1.47507038191 -0.525048942682 -0.401023878305
-3.18213826969 -0.193806270522 2.70614821845
-4.84532958928 -0.452080468665 2.96702987994
-4.82926922962 -0.172828386733 2.84906775444
-3.18245362984 -0.192796584394 2.26392096837
-5.47436041516 -0.98504438143 4.78843531199
-4.82879570084 -1.05225398646 2.70570677267
-2.22973493063 -0.705526222773 5.78444710358
-8.59124733143 -2.33302264866 2.89410861161
-4.80196499105 -0.342325969511 5.81314485726
0.98732853344 -0.583773062557 6.04297781162
-4.88987749144 -0.434309468847 5.80851225347
-1.67852096904 0.0659852459857 1.20221999646
0.251884476898 -0.476156167842 5.99858009939
-4.45656753981 0.0763557366689 5.77365876733
1.64153226902 -4.21527963147 -0.80599359846
-2.21719022147 -1.53905980611 3.00673321881
1.09907932383 -0.471792295516 1.55825598026
1.09663068397 -0.00872757871926 1.51953337492
-0.773912776034 0.406985466107 1.39913705837
1.10566292739 -0.279751552819 1.48511824813
1.12326935524 0.310235687739 0.413647121297
1.11879483067 0.553044502081 0.94386523443
-1.91303204926 0.163024721252 5.8311663215
-1.250323787 -0.768541068117 0.46997475
0.901589568007 -1.21423965228 0.588458910169
-3.23139423966 0.546612683207 2.69259681113
-3.03545134699 -1.1265388386 -1.50353169189
-2.14203217493 -0.598622375435 0.297355675563
-1.54031804811 -2.73488144669 2.89446908552
-1.6866070926 -3.18333271778 3.15027686179
-5.84606752665 0.81533524324 -0.663932219566
-1.00594105481 0.100513854593 1.63923152876
-1.12067937589 0.0104667617603 0.469628386952
-1.20099915774 0.0952388818573 0.389949146955
-2.91755946373 -2.94203551055 1.86682106541
-2.4018923584 -4.40777787183 2.38253676232
1.2940364477 -1.94487457606 4.36244115096
-1.68566716096 -2.2891395789 -0.718494652183
-3.50673977209 0.104279068068 -0.657921696456
-3.20519753811 -0.513248081928 1.26410127967
1.26642438476 -0.154932737092 2.51395247786
-1.04105787833 -0.654508858171 3.86356120995
-5.57113720681 -2.94429847625 5.85758548927
-3.69550407223 -0.0283531570292 -0.667274939826
-1.5706296591 -1.06591774032 -0.43037567152
-0.430016712502 -1.12400575032 1.63962956549
-0.351378993049 -0.522305157034 5.88161920471
-1.06168874404 0.473748066511 3.64414119565
-0.712479907172 -0.606608482901 4.4404743883
-1.63741806106 -0.728311993141 3.53025618265
-0.50451947175 -0.598448644798 5.88029656317
-0.182598343216 -0.0607717466115 5.91718774071
-2.02916502859 -0.758494886103 5.85804530466
-2.81759157317 -0.813150428815 5.84583906724
-2.54948858244 0.58187288316 3.54470102498
-2.56942120573 0.403232908067 3.87512470959
-2.18970052824 0.235256326347 3.54253850545
-0.256460908042 -0.389774542885 5.91983998215
1.0402264196 -0.194081964371 1.14285854676
-0.430070519867 0.307534218431 6.02289112078
1.30632498683 -2.10546602397 2.73426804266
1.26264432177 -0.139902615339 3.21354859607
-1.76661790787 -0.486492124497 -0.454244764717
-1.21690810182 -0.407189222673 5.88602638921
-2.50060948704 -2.01052937293 -1.8995752101
1.26963499795 -0.221972280443 3.08422776571
0.0968622846685 -0.469619212143 -0.257693979559
1.16896419513 -0.388867969522 2.77460027327
5.21247858155 -9.3748041807 2.57006548787
-3.15394682554 0.48387863005 2.73530476142
-3.18356949098 -0.118125107989 2.58998619374
-3.18831688569 -0.303119970621 1.7817223158
0.103413924947 0.269165957457 3.42081014048
-2.74699103543 -1.26036681979 5.77465424278
-4.94354473643 -3.53098433024 -1.10826325301
-2.33104478639 -1.20684388629 3.0066928129
-3.23664870875 0.367331715732 2.62721149204
-1.47203144495 -0.732399249259 6.11702002573
-4.74746713792 -0.0905937293781 1.9743616285
-3.14291639404 -0.71577632907 0.226820777953
-3.05488285768 -2.23228255123 3.57690866189
-2.69261930471 -0.427505531067 5.80467033468
-3.51896099493 0.623831567352 3.15305693502
-2.84026023454 0.401497516003 5.77906481394
-1.79000238665 -0.160368089563 5.85957087202
-3.24637077424 -0.0465059059285 2.1596672235
-3.2524295702 0.135941121137 1.50679442692
-2.31887086794 -0.229738517331 5.83540672479
-2.82490927177 -0.641074451144 3.72885965155
-2.97297969391 -0.212630496991 1.16882427156
-1.1032240785 -0.426245086653 5.88880848127
-1.39383083976 -0.346774277586 5.88069245738
0.503901551851 0.319466252449 3.79121682764
-1.04218311863 -0.354406955068 3.74602428892
-1.7643317868 -0.159546857177 3.54180878979
-1.04330261947 -0.121773288658 3.74616310795
1.0709214563 -0.0202152718959 1.90626023546
-3.2843947269 -0.203558257876 5.80129430051
-1.39400953255 -0.342250695943 5.88049684589
-3.84779689372 0.25043495862 4.07203074669
1.36540265578 -0.450000717662 4.36390775606
-0.553804275987 -1.56287848344 5.37561204293
-1.99721835094 -4.45751423289 1.23675713982
-1.57504679693 -2.7811127529 1.73058032245
1.36535245068 -1.73918875836 4.58484817411
0.646264537998 -0.369857503025 3.62177658934
-1.35285107922 0.228508896036 5.87773544044
-1.89874752868 -0.304217759664 5.81415430287
-5.16915207635 -3.23185296668 3.31912547714
-3.22855561292 0.614556060218 2.36836022809
-2.43725503251 -3.94958634519 1.25629286128
-0.864718881517 0.0479011780332 5.89316037767
-1.52401317819 -2.99471181864 2.01277619754
1.93530388253 -1.80342426616 -1.94801525545
-5.02396924357 -4.9569009994 0.339122371556
-2.79374282496 0.26217784971 -0.895649675782
-1.08191208536 -1.46550045703 5.85965443281
-0.983980748213 -2.51021169988 5.74609427287
-0.880902357056 -0.187666298804 0.570066993466
1.22274817408 0.121996472256 2.14146507617
-1.52739996127 -3.63318586346 3.10379864111
-1.91754244765 -1.53856567974 4.75030186635
1.06717827701 0.462274524099 0.233667666508
0.47674764136 -1.23144505659 -1.2468572262
-2.47690453338 -1.4453250258 1.77506295206
-1.51821488337 -1.76590839843 0.627820872423
-1.03741541676 -0.932488394401 1.98647776273
-0.971635491719 -0.137212635798 3.01831896324
-1.04480308718 -0.836171469259 1.71758751172
1.03948408483 -1.14343454716 2.65835673954
-4.50311580609 -1.17915985934 0.999381936375
-2.3276197813 0.358077767325 1.19884078845
-0.977286753058 -1.6595396687 5.83686084862
0.0229430307414 -1.06021057002 -0.512052352563
1.27201212861 -0.565236694478 2.45483503897
-2.38416535235 -5.98271824758 2.90631379452
-1.49808705199 -2.30802922528 -0.91361588152
-1.03450399665 -0.559657999928 3.4455509071
1.02026209415 -0.00810424491219 0.572260981859
1.34596202296 -0.519824892991 3.96002442793
1.33526091812 -1.43696201106 3.57501217454
-3.69235354072 0.126183443875 5.85264055725
-3.70923569092 -1.80159293445 -0.487208974813
0.166210176258 -0.134492783356 3.56422425835
0.211435818267 -1.09339763193 -0.774490839781
0.58999399688 -0.116682762242 -0.0269604013892
0.464284856555 -0.207636370499 0.48822613655
-1.4303485554 -0.642158885075 0.974664871121
1.12005240799 0.323172627775 0.628863395237
-5.49162740778 -0.156076699481 5.00628864435
-1.70556728495 -0.278930291514 0.163133521084
-3.49519163424 0.00559683436865 0.332379246749
-0.933190635085 0.326137451942 3.36108460201
-2.80779993129 -0.127300170765 5.8225072128
0.596668892022 0.543480878376 0.116285455649
0.46674319012 -0.293666981541 -0.0482427005696
-1.72882677233 -0.531235865792 1.2052410161
-4.75772657383 -0.0857972253964 2.67707793487
-0.754809909705 -0.687571127922 4.18537767812
-1.60104632485 0.861085759716 0.87283710728
-2.33625224448 -0.531831964844 5.84364193212
-1.54425396056 0.286987918806 -0.729612682846
-4.22325691356 -0.783959516295 5.84513572209
-4.41829544014 -1.88386488548 1.34809518967
-3.47746872875 -2.56581329717 -1.07397311409
-3.20732664606 -1.87850819938 -1.07823348426
0.664997738263 -1.53264551503 -0.748165143822
0.656241144291 -0.812108847601 -0.430180009416
-1.30908967626 -2.36441592885 -2.44850164297
-6.18767009549 0.755413196225 3.37863558574
-1.03716372502 -2.90361294902 -2.81248589498
1.29470710223 -0.324911922488 2.11333800102
0.0616071838772 -0.495806579937 5.95415505274
-4.76331674388 0.467752597654 1.3626685136
-1.98685734677 -0.445871116735 3.57936940461
-1.57418685142 0.26575229525 -0.811927822368
-2.26257260881 -1.10022277363 3.01357841814
-2.50042582397 -6.38358284965 2.07865807149
-2.50519899609 -4.38069863463 3.55388413579
-1.9391440058 -1.3629695914 -0.131977171668
1.12334796122 0.294465032361 0.557889545976
1.12372627118 0.516662876396 0.164015438698
-3.2549350403 0.0155349517693 2.93975792473
0.462296328418 -0.323652733139 -0.563384336416
1.22779257001 0.120789056228 -0.0941164445004
1.12381286983 -0.0490927423368 -0.16940553835
1.12615936798 0.354858943831 0.222950876427
-4.78532176607 -0.178690893891 1.60987976329
-3.1844893659 -0.318490176421 1.37788990528
-3.57607183431 -0.519595123327 -0.56818881341
-2.68119177657 -0.726375684034 -0.737950670853
-2.60675195188 0.0892320964774 -0.930836491703
-5.55730991224 -0.312778460234 4.70821386489
-2.28718871006 -1.38816596922 -1.25014828127
-1.03743032088 0.284539248474 5.88555714546
-3.47365104915 0.317795231885 -0.928675848355
-3.43915095595 -0.330052837729 -0.932276602733
-1.15025198164 -1.390689394 -0.589690705954
-0.435745767847 0.291789089267 -0.880555017126
0.510449081878 -0.217191661197 0.153342505531
-1.34812629123 -0.0289033876989 1.20999269079
-1.97992290956 0.36696304343 5.77257803749
-1.64822284786 -3.59631934167 2.53994773626
-0.593696675668 0.154317898802 1.70195234876
0.493966466322 -0.357394737491 0.249425416011
-1.71077619157 -0.366297668994 5.84758623672
-1.89365028021 0.375766412199 5.79064835094
0.605723775756 -1.4839965341 -1.62370780132
1.22706502605 -0.104627403083 0.650788404547
1.11808134187 0.350816953278 0.608479728686
1.04025390379 0.378784590204 1.11337583274
1.0816921081 0.127885507406 1.52166087835
-5.58851127962 0.191515379524 3.70715320262
1.12552511016 -0.395552208113 0.658829983437
-4.64661598532 -0.177672233401 0.509574957207
-1.68143297883 -2.90725382699 3.14207681901
1.1304014002 -0.384357877136 0.445575119789
1.12767871244 -0.483370872978 0.233795346254
1.35635725475 0.232881981606 5.19482743723
1.70418120098 -1.84862917221 0.506440281953
-3.14048457541 0.0373361720781 3.44254901017
1.34487323897 -0.352419894308 4.03606567535
-1.40736457459 -1.59500792664 1.9238495755
-2.69277136251 -5.3162699698 3.77257797677
-0.304013055299 -0.511727439731 5.94343935931
-2.56390557252 -1.65538284791 5.90013644158
-3.67354390696 -0.37119596053 4.13689204707
-3.67545705806 -0.426594069504 3.16521361303
-2.17780397057 -4.65866436004 1.0032807832
-2.15108235735 -4.63002861514 3.00687888303
1.14266615991 0.538110494424 0.222510849332
-3.76803760895 -0.222006119816 4.17101962408
-1.59457204024 -0.330074265277 3.56645023485
-1.02947888274 -0.173635889086 3.7583772681
1.12089937506 -0.398970024782 1.23260442793
-3.29050741506 0.00244260523944 3.38354238964
-2.0290504159 -2.52510619632 3.4044290439
-2.32270072225 -0.2529621917 5.83871616336
-3.21742146148 -0.918460329148 -0.625242696641
0.893720283959 -0.260729355542 0.719172959264
-0.645770298417 -0.359478212507 -0.567854486148
1.12298045011 -0.495914076104 0.83638259829
1.04054664917 0.160390487848 1.21885607526
-2.29784103179 0.483368787599 1.13247286761
0.363396140643 -0.852655616533 3.5277574769
-1.20951434272 -0.68755832162 3.5540153452
0.160928113763 -0.027001355901 5.93516362415
1.1293474765 0.0895497983809 0.0562418938629
-1.15097524458 -2.31032524473 2.41163432861
1.05609191909 0.428910474884 1.37133275487
-1.28764940703 -2.76894616494 2.52564527671
-0.914030543123 -0.516102056657 0.698427187985
0.18867625093 -0.0454771274571 -0.350052794184
1.21631532395 0.393773727305 2.45760824765
1.10941075619 -0.0844628304472 1.16234336179
0.181476645425 0.164398917854 3.84800115714
-0.977883205772 -0.0252027007752 1.02811917718
1.25734083527 -0.308714011773 3.44724137964
1.12674042554 -0.256957149099 0.446024463561
-0.825582427611 -0.0910907617222 0.933543033181
-1.27185636476 -0.653775327518 5.87262819503
-1.63627913668 -0.0268467496909 1.20009233128
-0.272197020026 0.485434480363 5.78380215583
1.81231880061 -10.868244301 0.12832561219
-1.01172070812 -0.13399416893 3.12914499228
-0.646689900211 -0.0475822059138 4.14212681866
1.34195431339 0.613423126058 5.98655988548
0.971606382963 -0.623548248225 6.10756118544
-4.34490615725 -2.42665186079 5.99011570134
-3.56795905641 0.577033023815 5.84350328265
-3.1717241199 0.0777365456299 1.39265230445
-2.75693046047 -2.82061015379 3.14503918904
-2.41682264221 -2.9067507372 2.88459575187
-4.76181158817 0.642026505799 1.52834428108
-1.37193802786 0.650296365865 -0.388293887332
0.0267404620215 0.150192843422 2.76894660499
1.46928215927 -1.35540421278 1.15034452743
1.4660656064 -1.07413240058 0.656658201616
-0.911185873112 -0.0905687385726 0.893643517765
-4.09254155995 0.0459780636968 -0.407423064927
-4.30654862029 -2.21996954667 5.99235849728
-0.658032398563 0.287255609241 -1.00569839321
-5.22142661886 0.151567460984 2.27869019425
-4.79660144611 0.299628712367 3.35897262073
-1.84278459292 0.522076690289 0.37338513828
-1.64694078734 -0.121793780996 1.18916533983
-3.17958587958 -0.0715796083885 1.80957127481
1.26234501155 -0.503399288814 2.73909498496
-0.692677636809 0.551986056868 1.15503818672
1.30174095375 -0.729512233856 3.39817852218
-3.0153702848 -0.0132511643486 1.1640879311
-0.821413179409 -0.932869756348 1.16226443333
-4.7473209198 0.66978162789 2.69255929208
-3.09221565022 -0.170404496256 1.16050394617
-4.86804640005 -1.45493464465 0.677151743878
-4.7474510652 -1.07616979917 -0.968757601996
1.66377015346 -1.62973121856 1.14525780883
-3.17192531371 0.118563089856 2.06210517094
-3.31946663467 -0.192990878078 5.81866596028
1.15625126079 -0.626685788038 -0.371301268519
-2.67153222751 -0.308874916666 -0.702967635685
-3.30683491271 -1.77407270512 3.7653029499
-1.57651169115 -1.90646168046 2.29393888574
-2.69215285925 -0.218552395738 5.81780091728
-2.82657757948 -1.36282417537 2.16507571735
-2.10888213787 -0.287923349587 5.84781302868
-2.16543920796 -0.081928005644 5.84535333302
-1.95893199367 -0.304718791306 5.84409550973
-1.56145321614 -1.37360551914 5.87996978992
-1.94998357158 -0.0162891388627 3.54044306034
-2.29474349725 -1.6569759934 3.41068264808
-1.00992220641 -0.918880612497 2.19695505297
-0.993275013775 0.442253906541 0.524666150425
-2.18852900172 0.529931513243 1.22231394531
-1.39131438615 0.502624748604 5.84260753946
-3.24680374359 -0.400116660949 6.03999594577
1.38277182941 -0.14934123408 4.98568217993
-3.82617427684 -1.04648165596 6.19670870539
-2.98941596898 -1.69394546012 1.774624634
-1.70475534246 -1.98646709366 3.31116018852
-1.018953404 -0.238790200128 3.09260945856
1.34732654534 0.390152428764 4.69994222025
0.203339798156 0.0132531898777 3.25432290081
-0.77804216396 0.0400734581229 4.12663607477
-2.77939199275 0.29016662696 1.21924811074
-4.32655470856 -1.00605846596 -2.5535447961
-3.01597065669 0.401549520937 5.80671726271
1.10714002266 -0.453456358764 2.03447486135
1.11996672703 -0.431327747757 1.64398637463
-3.35593553578 -0.147462275129 0.175281578078
-5.51759285264 0.063483595924 4.48898399897
-0.80080057775 -0.104784593367 -0.589482059199
-1.02067394506 -0.134852566505 2.93951625987
-0.93519188789 0.604709309615 3.34791195107
-1.90398185766 0.230655178066 5.9608461845
-0.98941036817 0.548642370672 2.5702396408
-2.56158743087 0.355397286819 5.7785997309
1.35993336139 -1.40167527557 4.75919890649
-2.20826901923 -0.517905443456 5.83608523325
-5.51614224063 -0.812105383141 4.91841237761
-5.52580095626 0.220716336565 5.77792203051
-4.62690837662 0.564893894269 2.24728773483
-1.85640609124 -1.20659111849 5.87450650698
1.34584303979 -0.0414771051666 3.89144002575
-2.66888190802 0.4249205715 5.94780199859
-0.535638937983 -0.513856947443 1.82506502081
-2.82812575996 -1.79675785326 1.88472805147
1.02792202327 -0.117666908076 1.06344972587
-0.897160421032 0.249484711991 -0.716219381129
-0.797024605613 0.280923863576 -1.16486018028
-4.33808067476 -1.07923742363 3.07626672474
-3.12162102254 -1.92742578519 3.45763437792
-2.62844336583 -0.150284162034 5.83000661374
-5.5848442953 -1.08868051483 3.77117911025
-3.4864460661 -0.0544496500836 5.78666303241
-1.17229358169 0.222927011333 3.26101151683
-2.69491879279 -0.509032027909 5.83477587173
-3.78116613695 -0.957392373002 4.11529293815
-4.73893939244 0.150270035398 0.483103693913
-5.21943456598 0.158999951801 2.34850586009
1.11696032589 0.11377167711 0.768072122137
-4.9152494534 -5.82823740549 -0.44079246098
-5.23454624415 -0.0569212931661 2.40891112568
-1.7517167412 -2.34665504403 -0.974319654974
-5.51725568831 -0.0588296929508 4.35915469108
-2.89051437621 -0.195836679525 3.67169349262
0.489641384864 0.0248319958285 0.396313583023
-3.21084285142 0.597404818677 1.62274010296
-3.45377230513 0.118428226524 5.85480810528
-1.4360151257 -3.8884443262 3.03483345316
1.24141946824 -0.100226836509 4.24948821343
-2.70185021119 -0.316591667619 -0.686838734584
-5.90431768934 0.809337184163 -0.675754601914
-2.42694346453 -2.48752573844 2.78413099888
1.00890133449 0.192973547824 0.103955022201
1.26861574231 -0.740294829515 2.67051559265
-4.28707299281 -1.06333177688 -2.51228148038
-1.00172486696 0.527343434075 2.61316139201
-2.62862763162 0.172359033532 1.20297216308
-0.0918710122431 -0.408365479561 2.54936996592
-2.0290700964 0.592046336256 1.22692219653
-0.480270596947 -1.99144165157 6.27955603608
1.67054307248 -1.502066983 1.15692876768
1.36702536886 -0.664302016001 2.13993570484
-2.11151478183 -2.2756629235 3.14090825474
1.3568644303 0.409093129748 2.34353861519
-4.90014619219 -3.41814331762 -1.29696513683
-3.22512408292 -0.716509238158 2.97364639483
0.266091177445 -0.456782571698 -0.607140863037
1.64973236218 -0.701896005896 -0.0730013226544
-1.61467864227 -2.51990054809 2.91570698169
1.41345177179 -0.858334114644 5.96058953926
1.32297613867 -0.877679781844 5.470620418
-1.10023918911 0.122561937514 0.115811330732
0.759823486968 -2.49066624439 1.56359912381
-5.4820470647 0.222363175172 5.767108064
-3.78778471929 -0.618640618118 -0.720025773224
-2.95637589979 -4.27665797693 2.89471679173
-2.86247100883 -0.189587050022 -0.690950985621
1.70138607987 -5.08204137247 3.45598995287
0.568917950769 -0.268773798022 -0.105766120566
-3.09788950455 -0.377050160932 -0.65842900047
-2.49062476511 0.536827782149 5.84595023286
-1.84298736344 -0.0986002211245 3.54529031866
1.31345191886 -5.12083522335 -1.46015262843
1.25836401839 -0.020284595173 3.08019448434
-2.30679026106 -1.03999096836 5.86220123043
0.640789014142 -0.763493534029 3.09666220266
-5.79150889246 -4.12066035732 5.39857595336
-2.18246821614 0.660820157618 4.91091071507
-2.2765989197 0.11996863189 4.96270974205
-5.56246913388 -0.212655033187 5.26633481632
-5.60143855889 -0.449857798421 5.84910976089
1.15655905245 -0.811632921691 4.6382774494
-0.0161249509745 -0.305107244504 2.49560509414
1.44861683157 0.646632241851 6.17290578775
0.590257106201 0.182554715853 6.01914950216
0.220570706213 -0.47519025293 5.92851331855
-2.98801863791 -0.34569179649 -0.697220737457
1.09695248227 0.351125652331 6.04623370212
-1.19410097506 -1.59009898811 0.654346891167
-4.50297079823 -0.90998319335 -0.30479532441
1.24190011814 -0.392932497128 3.20932087647
1.10127619904 -0.247091564471 1.91058644666
-3.11768760952 -5.50561716809 3.99498757128
-1.11352055642 0.537111701668 0.742250208688
-1.15594798841 0.117625226061 0.639623821692
-1.16824958928 0.00319369883544 0.780129862463
-5.51424119032 -0.224702057754 4.11217239449
-2.56447406047 0.0824162235546 -0.700773700989
-0.788899158283 -0.582947590548 4.29043319914
-3.0690996414 -0.349879453461 -0.692848301811
-3.80020240857 -1.04016905501 5.82031563891
1.26497262741 0.0275533386373 2.5439051526
-4.11378107743 -0.283898646679 5.79907405137
-3.10482101837 -0.334044656599 5.84370064729
5.70022338319 -8.1044036954 2.51358853513
-2.34886279192 -1.54535215195 3.2917519112
-2.74211850019 -1.13776926939 5.35734497637
-3.25659413931 -0.508285858995 1.72718218272
-6.08069913079 0.820191934327 3.35091844458
-5.59869724574 -0.72164207064 3.66830001791
-5.53420443599 -0.0671997051805 3.82290143934
-1.71853682125 -0.536034148615 5.84623216869
-2.60993161 0.372454626873 5.83225024062
-2.30219064101 -1.87575237875 2.79688437221
1.01208833428 -2.11509548782 5.51584107917
-2.50350774478 0.551998357933 5.8367717344
-3.4416285761 -0.141533751216 1.30611268459
1.04356543396 0.169912345883 1.59686935615
-5.27222979977 -0.349650640122 5.80787418883
1.21645301874 0.225306791207 0.896511149164
1.03709421964 -0.30117122112 1.40056561806
1.03024666436 -0.351386432046 1.45873715933
1.13552506362 0.381718365329 0.382715409716
-2.38321633349 -0.462748483217 -0.92440941999
1.54059952382 -1.43561989987 4.73527165548
-4.91546820095 -3.45926911555 -1.1732135938
-3.14335570701 0.730683796457 1.50508250281
-2.44896119836 0.405294368655 -0.561977353698
-1.63308676921 -2.3234502083 -0.936076763959
-5.17619469844 -2.74673651485 2.36026141755
-1.74407593977 -2.18323878482 -1.19394981193
-3.2354682011 0.253994484399 1.9680161528
-5.21868819875 0.168436128207 2.55149886737
-1.11393480943 -0.39565246151 0.903874639052
-2.37799082051 -1.45470725595 3.31286294504
-0.589092329199 -0.607825794268 5.88481535524
1.41039323313 -0.872954148247 5.52632872307
0.0728238752331 0.296865183235 5.89496248141
-1.21023682874 0.181512786484 3.53398549008
-2.62628332438 -1.85412914618 -0.971833539884
1.23236708221 0.453321783849 3.96776053873
-1.16441108883 0.503564859349 5.84610646877
0.958388045195 -0.816867150144 5.88127708244
-1.04061730377 -0.274770181037 3.93353452812
-0.531149426672 0.511712967043 6.05894000976
1.0361179532 -0.293815235869 1.40186458489
-0.862815519441 0.541522236351 0.960536932932
-5.65074292839 -3.43494047955 5.84987962657
-3.70040056268 -0.022868130605 -0.681339245843
-1.64261543603 -0.0953926070435 1.19491726313
-2.63280616491 -1.38619483748 1.67585675239
1.13130254093 -0.456678614075 0.0888066716044
-3.08297665705 -2.37090165485 3.76586445294
-1.017657827 -0.809348062113 0.284669362991
0.155537231294 0.0929381995218 3.28894975038
0.227516255563 -0.120682121393 3.22339150922
-0.841183643861 0.504961545528 0.921563236021
0.938692814102 -1.73014883 2.04059064347
1.66603946224 -1.30213662491 0.107225409015
1.13335557234 -0.399249467209 0.231901283736
-1.82056144319 -1.81545103386 3.49422348279
-1.20912179278 0.0185683887429 1.22460879585
1.03396277616 -0.863452231114 0.0208804255321
-3.30995077827 -0.499446023702 5.82878905008
1.11608841799 -0.00543741732864 1.71151993332
-5.24412568631 -2.67514468634 1.32598486366
-0.895350238041 -0.591857726672 5.87885299646
-3.90894102521 -0.666548762775 -0.586906965325
