#.PCD v.7 - Point Cloud Data file format
VERSION .7
FIELDS x y z
SIZE 4 4 4
TYPE F F F
COUNT 1 1 1
WIDTH 1067
HEIGHT 1
VIEWPOINT 0 0 0 1 0 0 0
POINTS 1067
DATA ascii
-0.809360662753 0.891146686342 2.74084622898
-2.44589043778 -0.490323490202 -1.00146972086
-1.44372135901 -1.681617984 2.59949751312
0.9075434013 0.643880492518 0.067297806277
-2.50502185549 0.0326342647925 0.365971800684
-2.27802393401 -0.00630137156726 -0.97469728591
-2.74572990114 0.787944896835 0.740070183097
-2.46048229955 -0.169217321661 -0.991332923929
-2.75653154704 0.596450818967 1.1090175612
-2.75073036403 0.730565504464 1.64876547158
-2.75967986726 0.525374537217 1.70966537274
-1.69958314904 -0.249816542721 -1.25941687926
-2.32519487401 -1.7141511683 2.52324348901
-1.21133261545 0.391984864449 -1.15652862321
-0.448695128144 -0.426664840806 1.05701554481
-1.14843444096 -1.99919816576 4.73743246484
-1.46361767328 0.609552991651 -0.500282317747
-3.992875708 -1.87429242141 2.11444884101
-2.87392640533 0.00366841531188 -0.988989371661
-1.51457527385 -0.187090478261 -0.46145308989
0.329054460066 0.246466031213 0.132553525168
-2.50289487846 0.311654537158 -1.01760610346
-4.74774392053 -2.18048920316 4.86811141703
-1.20823681456 -0.804836234598 0.404719914133
-4.79815898797 0.446564401561 4.78910400843
-0.623616814048 0.495710586177 3.26015801356
-0.641896331436 0.493200928128 3.31717157411
-3.77434247909 0.201906629863 2.62769741008
-0.42829560118 -0.809564282872 1.02248745737
-0.445047147784 -0.419140636607 1.06261127581
-2.61509116275 0.59420320308 2.75817141268
-4.04265194305 -0.0145653886386 4.76481599127
-2.76387267162 0.383931765522 1.20035720239
-1.63603196956 0.663044953218 4.75097547588
-4.19081134957 0.0471601289055 1.07277749002
-1.53171452367 -1.72915853937 -1.10994747116
-1.00775948474 0.292570892199 2.74289555605
0.635544632367 0.267768449119 1.18777827718
-3.11499823327 -0.178034554093 -0.976337470012
-3.89002881582 0.767057933502 4.73506688471
-2.01246686955 -0.782660856249 2.09690618846
-1.26305083601 -0.583736499184 1.48421148186
-1.34252015273 -2.61362279249 2.38674222418
-2.83076368253 0.0451880151167 -1.00201523057
-3.99255317431 0.532588354432 3.02643375252
-3.75598362683 -1.79771825379 2.61119178095
1.05115675677 0.680478838495 2.86045431352
-0.551801401685 -0.185597511134 0.83787723744
-1.69278891037 0.777063987227 0.687010414049
-1.4894901384 0.520271575985 4.78708820376
-0.933626216092 0.705999666634 0.358995153925
0.486604938426 0.104288451615 -0.223690529864
-0.937977172185 0.740350944719 0.192687243431
-3.58784806107 -0.809662595677 1.75747713641
-2.87073826789 -0.251192992016 3.30264994694
-0.571948718601 -0.538216366195 -1.02696841299
-2.76867697309 0.0227619534888 1.61467364183
-2.7608473802 0.0456800001812 1.09839482243
-4.80722124462 -2.09465074607 4.92982300739
-2.77837296349 0.294280528683 2.01563366892
-2.09967999725 0.796601737685 -1.03185375763
-2.76762485837 0.0964373620998 1.68204783532
-4.78809337591 -1.72866956195 3.73366216215
-3.49390210035 -0.153165383232 -0.616102044031
-2.57190201401 0.122946620361 -1.01535544724
-2.77406632166 0.62561643223 1.75839082189
-2.55411665389 -0.362941311827 3.71664418091
-0.444464237183 0.626835647185 -0.787950613492
-2.04697253091 -0.0729488141124 -0.986823758446
-4.97856005464 -2.15529846535 2.9482103097
-3.82043520915 -0.610282407347 4.84091462243
1.31611622712 -0.376658028235 0.192153307053
-3.73852509382 0.337775975424 4.84788513807
-3.03425519526 0.142934032042 4.05926666247
-2.5437154938 0.0747444164805 4.02284482867
1.16596797681 -0.604212911858 4.79201834444
-2.44625833728 -0.920804736605 0.47134462937
-4.04222253453 0.555607240289 3.80129566658
-2.35095512988 0.569470955616 -1.00379689267
-1.16081938131 -0.978957131367 0.331469184576
-2.79963734763 -0.192455266199 1.22299105618
3.1555463757 -7.44888103423 1.76917168295
-2.79639640926 -0.164491307373 1.43074021785
5.00590955999 -10.8165717226 1.84680904018
-4.1017894085 0.624168801142 3.73554399404
-2.77657262484 0.683123357294 -0.867428899777
-2.84994237866 -0.295003431673 -0.874826710991
-3.135130252 0.132643292284 -1.02979654245
1.04848913927 0.26922026668 2.61401192434
1.05267666062 0.138777030353 2.56285124111
-4.35341257832 -5.89869729449 -0.324855807349
0.895776695354 0.05350615069 1.12430567523
-1.11647086196 -1.57104086583 -0.642786995855
-2.51812584091 0.0381773172955 0.324911040394
1.02726624737 -0.138391302152 2.32312478431
-1.41989550104 -1.18764260899 -0.396259504297
-1.6438209574 -2.65635090621 2.1850977386
0.894200970595 0.0628810972864 0.363317208902
-2.63615733417 -0.967671518551 4.82750114773
-2.69726774155 0.658566159554 4.75218910273
-2.18959707179 0.106625379715 2.75681883123
-3.850203807 -2.59490496016 0.980108631103
-4.14438568806 -2.91207748653 1.85680337016
-1.80223877497 0.704363943538 2.72889670954
0.219702240579 0.358568365601 3.88921731241
0.595153858061 0.23077813092 1.26967009326
0.580678561915 0.151238574305 1.30465114025
-0.678182035049 -0.440023119022 3.18231166051
-2.23195974279 -1.72302324125 1.30558136728
-4.19572228368 0.0645290292972 2.19695309145
1.19478931002 -2.10588944875 -0.989386870021
-0.983386167417 -0.32724370002 2.72696752095
-2.45485815676 0.593365202119 3.85351847068
-1.65493289979 0.263182336141 4.79283344609
0.553222925234 0.381276563645 1.41822827237
-4.01753955485 -2.12811329138 2.24231967159
-4.58244713672 -1.0937286028 -0.656545181364
-2.77691277178 0.240412182018 2.46723698926
1.05561391136 -0.050795173076 3.63382827324
-2.5148156672 0.42174898787 3.03958844636
1.37979709738 -1.87914859254 -0.997763479172
-2.78552154385 0.610644934399 2.69938888735
-2.59416418611 -0.390981164373 3.76278620757
-1.98716633364 0.298726413132 2.77987112364
-4.0454153739 0.337244619296 2.94983797261
-2.78792417441 0.422739586305 1.50265395016
-2.77914350011 0.385405481853 1.49331069792
1.10213508104 -0.0214330764626 3.30526379714
-1.55643173394 -0.0978537144034 0.770748869469
-0.0949009197211 -2.75939656855 -1.01922781753
-2.1824877013 0.311382411917 -0.977977668084
-4.12307042856 -0.0874573910195 4.49325531591
-2.9421986514 -0.153260614123 4.14413250272
-1.48441471382 0.352608299214 -0.494950167119
1.04779994303 -2.68328670918 -0.692232466199
-1.60216642172 -0.100175051852 -0.581816665435
0.152277442758 -0.041167770557 3.80423461255
-4.12830224154 -0.569340010654 -0.628631447774
-1.6899000777 -2.05175819737 2.8950701068
1.19353906789 -1.17000094066 -1.50304770385
1.04649994388 -2.07332107709 -0.625239425199
0.887603219345 0.329213070104 -0.0990860068191
0.886605348933 0.0521428823636 -0.0569818053011
-4.18090595412 -0.832771814346 2.07967330935
0.894611943823 0.300695175506 0.134054129542
-3.81168001127 -0.600969782839 2.64697007169
-2.75957533897 0.359652337104 1.51899277659
-3.17016081217 -0.0891084013039 -1.18586269679
-1.8102042249 -1.8084983598 -1.12149460069
0.496338771112 0.0859875449862 1.6473314978
-4.06890409615 0.584178907156 3.94249278819
-2.32197517051 -0.00483359129637 0.740165052349
-0.806049512408 0.0473955564269 0.178476612899
-0.797155350627 0.33186527177 0.827014678171
0.903733335684 0.217962686003 0.278196396404
-0.874797117056 0.706619688002 0.602029989747
-2.57599257875 -1.54859363875 2.74874812411
0.373479786429 0.684330193033 2.62100483355
-0.564759153487 -0.895523341975 2.95902859015
-0.682785171245 0.462799049643 3.34106565415
0.584055910078 0.227254559679 1.89558013
-0.484511925748 0.0451775316694 1.0377935856
-1.47689141378 0.432235605286 0.799818408422
-1.27356493688 -0.164822675352 0.497899243314
-3.14236111878 -0.0552536705792 -0.990553645173
-2.54807709322 0.391279226956 3.0027385978
-3.72795840099 0.0555632775042 0.183235433626
1.05718427147 -0.115853641769 2.07689486669
-0.795857573262 0.201893174726 0.357287436919
-2.31157467511 -0.673709416991 1.17215854988
-0.797282874199 -0.191539965189 0.286165780109
-1.38743671843 -0.112053537333 4.74144195066
-0.0544958213289 0.328393167215 4.76519010269
0.0729785732525 -0.0952269261664 -0.675972741132
-0.547547934851 -0.879867909861 4.85529933734
-2.48428475521 -0.516388725588 4.00480908704
-1.80247612556 0.550662381353 2.7361193347
-0.476108142876 0.0151038780425 4.76183878825
0.842273055108 0.0200595554635 1.31654072399
-0.807056950094 0.543048452076 2.38923826195
-2.13491945039 0.798308109378 4.78948312127
-2.15811521476 -0.779156084376 4.83552561081
-4.85714945747 -1.49461136202 -3.60477294769
-0.439831062831 -0.164204403124 0.804245520001
-0.42527597807 0.471720855598 0.818085544408
-3.09607603666 0.0621140455124 -1.00553560906
-0.403513970353 0.0125645875386 0.875920973674
0.472642497346 0.24847084413 1.67792468364
1.08752646193 -0.799203075842 2.23185744975
-1.92272388363 -1.22381623079 -1.13878939003
-2.76271893952 0.352330169514 1.51308715845
-0.624509052297 -1.52912512521 -1.03917856358
2.00957260025 -0.711440957897 -1.06125557058
-3.18421015759 0.152067527524 -1.01269602592
-3.13342241717 0.151067703046 -1.01134575554
-2.90808073319 0.0220962224657 -1.01267749758
-0.810390509214 -0.449883481013 0.334070960119
-0.739690679018 -0.249585213696 1.11467168555
-0.749530999815 0.101728893012 0.806690964763
1.12315724316 -0.783882715685 -0.946561284845
-0.416525162454 0.353472231134 0.826721376635
-4.241741698 -0.910393877538 2.50735662683
-0.555386298234 0.479092088296 0.847409350842
-1.10148658973 -2.54561830566 2.27954258242
0.912842939249 0.386204670845 0.619212608478
-1.28077240969 -0.797959629174 0.439371723531
-1.84803047519 -0.501630104031 4.72681728505
0.894101613868 0.298547330247 0.957204081541
-4.24279091232 -2.09866340194 1.67579797529
-1.24659548004 -0.944178550423 1.4711229125
-4.16610535494 0.812093500333 0.846562509958
1.04152321119 0.260302873577 3.06996749678
-3.64931098569 -0.939868752306 4.80393005287
-2.85463254222 0.409987947875 -1.00419088585
-0.846118657119 0.530966432229 0.384621379341
-3.3805570835 0.113991967713 -0.766782981795
-0.707413629098 0.687105193759 0.434210212975
-2.36963020158 -0.00275055726881 -0.975921295395
-1.91421220078 -0.0194094462638 0.77164927562
-3.94815094319 -2.49443433545 0.613277728727
-1.57675496732 -1.68504842938 1.59339850624
-0.655607121472 -0.632269966174 3.34728355509
-3.73662430536 0.362536597827 -0.0663486765761
-2.66216751259 -0.63701220073 1.41994405583
-2.8889200723 0.252282771095 -1.0009667307
-2.91719717851 -0.0634470972873 -0.990272562491
-2.51757251987 0.299135763756 4.78898147977
-2.77165702909 0.330031644487 1.53111642562
-2.42975843328 0.257692731695 -1.15816712332
-0.741170231067 0.606239416726 4.76727625534
0.537741816538 -2.47932550194 -1.09738312942
0.881003117141 0.641044543199 -0.0891954034477
-2.09554109178 -3.26171325012 2.40163376882
-0.78340013441 0.0327336950002 4.79327570857
1.04203727428 -0.602274582509 0.85036742865
0.422003936851 0.145824568481 1.73607427959
0.600352226388 0.740287199634 1.30406828904
0.821612889694 0.658721133093 1.36930063304
0.898616794468 0.180906015175 0.397983353559
0.881742384649 0.478165490702 1.04595338926
-2.7369476344 -0.0239909423663 0.538589899241
-2.76718856353 0.659195735521 2.55287655
0.879094043885 0.153381334981 1.20218187101
-2.50635637038 -0.00734296480191 4.16749948907
-0.808589189906 -0.462576649276 0.727116586235
-2.57653784413 0.59754908278 0.383580438357
-1.40207375007 0.495801635812 -0.40492988476
0.997658279192 0.786832369933 0.232037595753
-0.803999544143 0.0956511227154 2.60319929668
-2.66318527451 0.225431898339 2.93252068555
-0.794070919829 0.228658431735 0.633440197836
0.154217900325 0.548241039492 2.93074181423
0.725342839173 -1.54646195496 -0.897122915094
-2.20643698203 -0.120787753369 2.74999234491
-2.14864380333 -0.0815066617498 2.74790179142
-2.54444980525 -3.31614549071 1.23858391226
0.0950356407156 -0.0421655078752 3.92295739263
-2.42057067186 0.472038904469 -0.978214770646
-0.526379054293 0.0723678597787 4.76067767275
-2.21865323672 -0.334874672567 2.74930157288
-2.36790594296 0.878063262689 2.73580821083
-2.31668307962 0.0016618451479 4.73205687654
0.894935275121 0.51714593615 0.758546556366
-3.71399516291 0.0283025434897 4.68525592453
-3.7663194525 -2.40570053726 -0.949410701833
-4.03250249685 0.155350759588 3.23145857533
-0.759194339414 0.315522229448 0.801540129849
-0.794929321164 0.0953386510827 0.578554728343
-0.784905263102 -0.232623139687 0.787594556883
-2.4364622621 -2.10969994814 2.51784539255
-4.22976207826 -2.87945441175 0.903810318728
-0.44503397551 0.756150571379 4.76677831879
-1.09111586064 0.394676950111 4.78776362357
-1.8235893241 0.327305416051 4.79610890802
0.866344221451 0.297996887631 1.36471988874
-2.54039536609 0.141750577159 4.03597965421
-3.05744299844 0.808255541679 4.77452281177
-2.15089058616 -1.59145966554 1.80120749354
-2.43395597387 -1.44592458033 1.2307819921
-0.631417973914 -1.30938052476 3.26671977026
-0.234699579307 -0.0983632939651 1.70240004595
-2.81913872639 -0.647704575188 1.37545347155
-2.69373421351 0.183771617645 -1.01267656292
-4.23060107158 -0.941453946752 2.42138079642
-4.18950033841 0.130245323015 2.08118389538
-4.13018884699 -0.708309611757 1.46031380387
-3.63150366423 0.825574216717 1.62750835992
-2.29726454888 0.516199723672 3.72069243537
-4.10766242644 0.223146343365 4.10956257476
-2.60046823047 -1.5051787106 1.16305583691
-3.02097715058 -0.0154730557305 -1.01188568422
-2.77866866494 0.321153610379 1.50891665955
-2.78187685779 0.220924121025 1.29208543592
-3.69022791393 -1.02067430456 5.03226478878
-4.15377319656 0.839580094638 1.02784173698
-2.79967880073 0.610170958127 -1.17574440135
-1.85199513091 -2.09516400186 1.81786681729
-2.78355850371 0.238082773708 2.46079302105
-1.9933313928 0.57430348739 0.769411472597
-2.27685517765 0.0846810665723 -1.01739503651
-2.77360256904 0.220453171338 1.68817887112
-2.76852846603 0.477049877136 1.68392685507
-3.45074358637 -0.180909093571 -0.619812748989
-2.09466959498 0.0513857808532 -0.974489018593
-2.15413508019 0.371396506373 2.75243621351
-1.429158802 -2.03309266481 0.375922109352
-1.46808953816 -2.07252448651 0.473906551451
-1.94342196892 -1.92510256381 0.128544762581
-1.78262706531 0.079724696991 4.80133738936
-1.87553436511 -1.01212524746 -1.09945455202
-0.985162329482 -0.986842334415 0.387824375317
-0.691238932083 -0.257823153158 0.451448118539
1.33774098955 -1.29941402872 0.802069161012
-2.77571020094 0.554774980083 2.52842547854
1.24758771458 -1.22368364303 -1.53524176644
1.03017224222 0.686956220303 2.51753820289
0.467439065011 0.421280738134 1.63981506966
-2.28953772973 -0.272684640288 4.15542247363
-2.44304423792 0.129278896861 4.0214721896
-4.18975776553 0.130548464452 1.40257792364
-2.72603987078 -0.023400504054 0.524976215861
-4.0356066401 -0.194990439814 3.38300310102
-0.763863888392 -0.523055580555 0.0797493653484
-2.76843909981 -0.0277130857872 1.66752314592
0.423528232652 0.0345528509491 1.68972193571
-2.57612884065 -1.27375638095 2.58918076279
-3.32926913415 -0.837824634271 2.18749022873
-2.63536685715 -0.166275230811 4.13843922795
-2.78581526684 0.351353460226 1.51410354769
-3.85100222328 -2.75275632286 -0.718241519921
-2.47778463083 -1.56644912282 2.5670796738
1.71981760234 -2.19415430258 -0.675572942425
-2.76978871744 0.75091850645 1.88434785221
-0.86749297369 0.0114446382248 4.78196000856
-0.809044089408 0.137839796011 4.7794639707
1.11241259488 -2.46551852215 2.83475411725
1.11251648147 -1.6526659937 3.29631187507
-3.85707605015 -0.513696223379 2.57636001115
1.08487205846 0.0455197837591 3.2733982716
-2.55896791952 0.191720960853 3.07713893707
1.04331283262 0.452721387184 2.48108162183
-0.0310439037791 0.288109461995 1.96853255743
-4.02368914495 0.350221032718 3.94405759296
-4.06484110387 -0.0547164284185 3.78545897556
1.83207422682 -0.623227170719 -1.04617398142
-4.06692351255 0.506229574157 4.04750446094
1.07634708888 -0.682001987343 1.98535890311
-1.05599036162 -1.53589387308 -0.819595327727
0.900472379666 0.779990225537 0.896060650797
-1.23375569145 0.7199192216 2.94892700134
-1.03338212282 -0.218226608013 4.81264377142
-2.55377209432 -1.10802192029 2.56857280512
-0.383337374672 -0.208806641566 1.53168874038
-1.75185570005 -0.395629803517 -1.03671614602
-2.39534113482 -4.1601873457 2.07475051707
-4.53258082334 0.648997345605 3.76312141909
0.484130602933 0.692015821459 1.59914595655
-0.811903423385 0.0673933220752 4.79516772097
-1.55297249396 0.390061334759 4.79369653304
-4.23025517841 -0.905286179364 1.25461243955
-1.23251419067 -0.11537823838 2.93467555975
-2.04772674454 -1.18490902597 2.12885727259
1.22560696639 -8.85866703168 0.259214088161
-2.35880846241 0.30501832104 3.96276406093
0.723855098104 0.564741078615 0.611151149896
-1.50235748594 0.323584944738 4.78576712068
-1.96689770207 0.00907844834402 4.79707013327
-1.21435361742 -1.55979884637 0.417174890307
1.05426271553 -0.0799057178831 3.19369492653
-1.72078046812 0.011666348457 4.76606780778
1.14976423225 -2.15879101365 -0.716785735748
0.897807547634 0.485603259111 0.510955271146
-0.913367700551 0.222492449377 4.7813492268
-2.44133379584 0.211740763143 3.83934545723
-2.43159405973 0.128220604724 3.845972596
0.0532114092571 0.487341342841 3.8408577636
-2.81106821225 0.0324265124195 1.78681020678
-1.50551851584 -1.64232195154 -1.76778705692
-2.77103988988 0.360669039822 1.53756066855
-2.76459342301 0.287594312504 1.03784734654
-2.75866222178 -0.0736999757748 0.823772516895
1.03608380887 -0.320808448035 1.8448075606
-1.90088893633 -2.26087232966 2.24406731576
-2.78691410545 -0.0781059815663 -0.815540216959
-1.2578316608 -0.982333156696 1.48316878132
1.05589978292 0.703210709789 3.78668155743
1.02825075205 -0.569053261868 1.77788597977
-2.11954824781 -0.0249122226506 4.79949199171
-0.790600861717 0.413195462596 0.274298074026
-2.09384164707 -2.87344735219 2.20755836556
-2.75968293936 -1.36136547953 -0.862924678848
-2.67637837901 0.139934621136 -1.00822908026
1.23901095645 -0.652857800564 -0.932689604275
0.58244927322 -0.975129143452 -1.27324937809
1.04831054892 0.494463041337 2.43704123095
0.868488171625 0.728541496012 0.472488524256
-2.3351464069 -0.813005835185 1.3955073339
-2.30142442699 -1.99338428865 1.3268763005
-1.14840556163 -1.1061605064 1.46614566927
-2.36648318217 -2.81350407539 1.45258270278
-1.07814570385 -0.299926406115 0.706685061963
-3.61264135525 -1.3308957089 0.366932299327
-3.98997498212 -0.845572152939 4.52958800874
-4.20818333253 -0.22340854335 2.09711171164
-3.16842427774 -0.516370716897 4.75553833112
-2.50534994216 0.0187185301822 0.371264074126
1.04072707752 0.57544882872 2.98705691513
-1.45525839979 -2.10887421492 1.62516400748
1.04502902773 0.232318567008 2.66930914858
-1.38109832633 -4.01687492863 1.64695782891
-1.67456679824 -2.00666893184 2.02299277024
1.10874448253 -1.73193572974 3.18625617487
-1.51206775132 -3.65102782924 1.75411137569
1.05134763385 0.419544150324 2.12084336852
1.04495806766 0.360426369706 1.93651801205
1.05191852501 0.707645029245 1.88112529583
0.466536321938 -0.617805593629 -0.592067274377
1.04815582771 -0.191699766268 2.11157388554
-1.48647629757 -0.7744472582 2.93379111563
-4.71906743491 -0.449021333426 4.06801420779
-1.76731126424 0.363372092015 4.78835558329
1.38527558764 -0.128237517379 1.66897440697
1.33221205106 -6.02596284108 -0.13450261889
-0.75891089654 0.202780174135 0.974041582358
-0.679456073265 0.208601325072 -1.04503237619
0.403439202246 -0.838358855165 -0.00547378685036
0.849003176109 -0.369491886166 -1.12630715604
-2.35021934109 -0.0899170583439 -1.27802619852
-2.56416835207 0.170874898653 3.08358112786
-1.69372366818 0.812405663076 0.792439496266
-2.21807069379 0.515783299864 -0.97711192292
-2.18355642273 -2.80370205789 2.28796793298
0.850355460947 0.0439567861026 0.797450470529
-0.260900050688 -0.0528517781606 4.80458222639
1.08918582173 -0.942888272965 1.7266810208
-3.24451866419 0.281186823651 -1.02272651681
-3.32027813144 -0.14809546532 -0.918554288775
-2.68115744655 -0.127422940155 4.22553282358
-1.48458359707 0.721504658008 -0.372842349802
-2.80792394412 0.58148156683 1.83373251228
-2.1501964107 0.706648210227 0.682986044584
-1.26406706312 -0.95436665047 0.561625682709
-1.82702509023 0.708530397333 0.692212773124
-3.2899259732 0.0459718447157 -0.946118850898
-3.18384859449 0.15077176497 -1.01351313664
-0.796687837647 0.400835477504 0.259025706111
-0.799037717091 0.0739515145923 0.506515575597
0.897864068608 0.0676767184009 0.64599046065
-0.795578198685 0.331218266276 0.341623935555
-0.799920406857 0.702636042366 0.70924402602
-2.39294824734 -2.00124942274 2.51777252897
-0.765682266832 -0.0601417103152 0.747495702501
-0.806602528685 -0.0699262100075 0.684199974596
-1.26184905481 -0.842510185939 4.75503217008
-0.924135907173 -1.68596040818 -1.40892940618
-3.23500627084 0.705267597023 -0.927397317931
-2.71998635961 0.0572495844494 -0.980986406846
-2.14167682379 -0.210294999052 -0.982401324346
-0.773722429399 0.528649757586 1.34105957977
-1.80874972487 0.405693124458 0.791304077118
-0.774384409071 -1.76560698147 -1.92951490653
0.899656103086 0.264061972022 0.131596721841
-2.93972871371 0.178146328667 3.88681218315
-0.270797797118 0.789930067745 -0.769882651152
-0.413096020182 -0.493579633456 0.991870056929
-2.17162350493 0.70881152937 -0.920616718545
-1.49008078288 0.671081533254 2.72913709541
1.05333925663 0.741733625852 1.71691909952
-1.84310442931 0.268207671097 4.80095869677
-2.84625960777 0.250422598506 -1.01518759035
0.371080066726 0.708332663532 -0.509968041507
-2.79782181875 0.155858363688 -1.00952538585
-0.744842080364 0.448241436104 3.25961239222
-2.74136980127 0.155219127131 -1.00957779408
-2.31223439874 -3.35774714768 2.50415026184
-2.23872629821 0.163903281803 -1.01628990224
-0.283761753889 -0.144431691958 1.32977715972
1.05870941379 -0.0219225633655 2.22454003473
-0.859520914712 0.525155568619 -3.21475700123
0.894897995861 0.0747182903622 0.983425021847
0.894283971866 0.784713517829 0.845421267517
-0.128751810199 -1.50800334974 4.91983142228
1.03145485666 0.341288057344 1.73592563843
1.04848851522 0.122867472992 2.79979689473
-1.29724042272 -1.65848454029 2.55468085438
1.03324101577 0.131282593228 3.22284478283
0.895123574267 -0.0481329203717 0.0972243730626
0.898511405479 0.153431712148 0.983272534772
0.899757794407 -0.0458298988891 0.523000885605
-0.771963338515 -1.24390192004 -1.88723175142
-2.60098620058 -1.4684169444 1.20891404101
-2.12585305446 -1.53572858499 -0.77947473779
-1.91839406807 -2.04819355105 1.9284333601
-1.29970198803 -1.76940555136 -1.35191146996
-0.297336018695 -0.5340489836 4.7976882156
-4.2002926495 -0.237409551623 1.33557480374
-4.17120760637 0.81050300973 1.05788718377
-1.27912880585 0.412835903175 -1.13051321578
-2.79401625798 -0.0226041719834 0.941937315659
-2.76799506138 0.617799572745 1.14482650791
-2.54909398679 -0.0127838341358 -0.987329706537
-2.93558982809 0.278471542805 -0.992432364049
-3.00384563949 0.123085340338 -0.990957953117
-3.22272848367 0.0104430426973 -0.943184697614
-3.77234213819 0.203531193872 -0.0250677990653
-0.854312128515 0.646473882973 0.488571983483
-2.59039938347 -0.278584327832 -0.906554849097
-1.18820708849 -2.24672658877 1.69015278998
1.05125327192 0.427388190112 2.84974262161
0.894835757186 0.484512020117 0.0885274333299
1.06895842878 -0.725135681779 2.95392243194
-2.96562226769 0.300369315809 0.214301350003
-0.922158873463 -0.609360735904 0.0286691552406
1.02616198597 0.344336720294 1.81403037907
-4.13238813114 -2.08529281028 -0.847885238925
1.07793845107 -0.532909382912 3.68300128674
-5.80574181599 -3.02941641447 2.36066108787
1.04460214199 -1.74441902845 1.79893067482
-2.75426216286 -2.05296174563 1.81259419226
-2.75468348312 -0.329510786453 3.72617100018
0.603699484653 0.627508582392 0.24862310352
-1.44452287177 0.453623757144 -1.16080986009
-2.40212480221 -0.436390058743 3.74303599159
-2.35931032653 0.606408817083 -1.00988651111
0.0442150967381 -0.0259019305319 -0.722129638309
-2.49563686307 -0.12397413339 -0.985565954251
0.376104503502 0.323425125526 0.342588249937
-2.61436289175 0.591720288093 2.75623362858
-3.59323827159 -0.214932094583 1.87619584996
-4.09997361429 0.744360008895 1.6559587249
-4.17271570718 0.647486243932 1.88454745994
-4.05828754508 -1.41349016018 2.06573846967
-2.37085116014 0.376426389233 -0.997257498081
-2.73786011737 -0.406174239916 2.75825560051
-0.707551447959 -0.00140040598465 4.80402443369
-0.592115815447 0.288239204615 4.77941679778
-2.18782719512 -2.17405787228 1.46176015636
0.903275243309 0.616408626975 4.79448044382
1.08195262918 -1.22251807017 2.91906116668
-0.812345421639 0.181533958182 0.651366153591
-1.1015100605 0.628326101353 4.75758360222
0.896043975987 0.471105633641 0.954471401736
-2.13318258635 0.78588347041 -1.01250953397
-2.76705570477 0.320648608574 1.51084371811
-2.76700298141 0.0133191593705 1.66728444035
-0.342260122186 0.295195179304 0.994654899738
0.900698927225 -0.0358730426663 0.52264849655
0.906843650406 0.798189597707 0.104848254145
1.31777521798 -0.358536490372 0.936919409871
-1.22197290699 0.582051483136 -1.2022716557
1.56099665744 -0.184796749358 0.968700799295
-3.13708913683 0.088521604654 -1.00297085694
-1.40047976881 -0.659008904914 1.33958151446
-0.793529529377 0.132492396632 0.723192280887
-2.74177645749 0.0930746789523 4.79713537291
-3.60509922391 -0.40089907639 -0.434287160448
-2.85774733905 0.594188186774 4.22339719067
-2.78309005536 0.209057433414 1.46604108339
1.0304527146 -0.796651344835 2.93500571465
-4.19945679113 0.215555621201 2.65032202927
-2.41891637905 0.00149397595743 -1.03024406203
-2.8374849711 -0.00360337927077 4.80204317615
-1.64629329647 0.02667062313 4.70658251698
0.892531636663 0.357676147509 -0.0327216561693
0.509387599816 -0.0260262102032 1.58831786602
-0.343977362233 0.471767303118 0.999273831205
-2.76962125891 0.18278914137 1.14068864229
0.468483072683 0.458490172341 1.65166340232
-3.78214869474 -0.836423032204 2.7330869353
-2.76712154296 0.183971464196 1.15980094244
0.877424044917 0.312401192601 1.3692339866
-2.75793765903 -0.258574749812 1.26371374005
0.896653583169 0.483642821932 0.791316029052
0.899849705391 0.0638305206112 0.929064376703
0.898442134876 0.312118427554 0.503478965232
-3.69674535695 -0.900147674885 1.89026315286
-2.62579427633 -0.494611047461 3.84492170354
1.06096622577 0.756503184633 4.34094419128
-3.09229549317 0.63284189122 4.07027711002
0.0685913389316 0.366179786224 3.86055254591
-1.35920416921 -1.83140922164 4.74363745915
1.03833444049 0.0459419253322 2.47509265697
-0.0255744612862 0.130562849098 1.97852433135
-1.11940654945 -1.06397265178 0.385520329436
-4.19480989631 -0.219758700774 1.35224842784
-1.26083636215 -1.32129119113 1.49104755276
-2.76740655184 0.00730355537238 1.436521371
-1.93078799871 0.231984721126 2.74765191098
1.11914910608 -8.78729560767 -1.5450974498
-1.54465993761 -0.168767084704 -1.17042551676
-2.15464370769 -0.790889579315 4.83742056143
-2.78144864064 0.274421920362 1.97366980563
1.27801799617 -4.45641368848 -1.6592670682
-2.8023038379 0.0969052477587 3.74738295578
-2.78733483794 0.440315314905 2.41952122692
-2.77187889453 0.436552549315 2.64772340623
-2.60244492449 -1.02728178822 1.38323755709
-4.06346389097 0.660732014356 2.9695025979
-4.50119663878 0.696611752792 3.89418981841
-0.786465419419 0.0797353738576 1.77008103373
0.15555940726 0.021363870422 4.74194204533
-0.678555367808 0.271764787947 4.78153662798
-0.0383456338182 -0.240216441797 3.83631375521
-1.49947885487 0.0687113089961 4.7858214981
-0.951990529219 0.559483393254 0.834099911
-1.0858669082 -0.271667971309 0.659858584264
-3.01240598094 0.729782727662 0.265045632396
-4.27058302491 -2.08115315112 1.16127381323
-0.871303874729 -0.156931577648 0.409471635501
-2.19591072084 0.391215264042 0.749324923023
-1.64895932488 0.288742131945 4.77791023778
-4.10147462416 -0.00779019894464 2.71509759362
-4.19679037678 0.136339952377 2.41677548072
-3.59314735104 0.807831378411 1.70758949852
-2.54668551148 0.479360895585 2.76214048924
-0.879656802267 -0.590041161607 0.0117342659998
-1.20004349017 0.683872310277 0.403826783363
-1.30518547347 0.618043953319 0.394113239
-4.03901245466 -0.547038821021 1.50240914819
-3.43427399408 -0.364523799463 -0.989441959
-2.78252866665 0.391285069053 1.48572762514
-2.77401402146 0.469101567545 1.45360045896
-1.84907104128 0.646206800301 0.775112190861
-2.25348992345 0.307183212647 -0.97490795005
-2.7700782324 -0.0637717904403 2.14424010871
-2.77101004334 0.439938359914 2.24598509214
-2.76928706905 -0.0690806780539 1.95078966579
0.0829589536982 -0.0356091420651 3.91580410617
-0.818167679842 0.551234128637 2.25595329893
1.05110382647 0.587672180744 3.24595160084
-2.02320595556 0.7177803647 0.76828919618
1.07235609822 -0.493134409611 3.67570574721
-4.95236711817 -2.22283833871 4.95059695325
-2.77503617331 0.23603073577 2.3510193318
0.0720277959213 0.347869638779 3.87789857386
-0.940140951344 0.208477538988 0.84410929885
-0.893490256675 0.18591605154 0.564550709211
-1.61515236424 0.588810326127 0.808970508728
-0.539354246404 -0.292565128909 -1.01049886509
-2.40759827877 -0.58807376741 1.01504498368
-0.885543528053 -0.0847137335796 0.515504681068
-2.86854076809 -0.350095697259 0.103209910185
-2.01412863946 -2.89362119465 2.70823474
-1.24285523668 0.045450902548 0.506678837613
-2.76098066675 0.0674403944522 1.01461581746
-4.15860390734 0.831788607881 1.00103277486
-3.04322080262 0.0144531892036 4.00318673975
0.897225685922 0.629835534325 0.3353771042
-1.94705873488 0.734979794226 0.771454423768
-0.342004353917 -0.400279530149 0.842505324938
-1.84689268085 -2.88599303424 4.92748841236
-2.39546134147 0.384622791491 4.05492190553
-1.45732005775 -0.458353824926 -1.07105524706
-2.10182612462 0.72820152454 2.7371176009
-1.99071631373 0.297492867035 2.75161128078
-0.567629748652 0.518694084568 -1.00391837093
-1.05923918725 0.684143861878 2.89942867738
-4.12567120026 0.77438794321 1.46007755594
-2.03327229664 -1.16535459563 2.13331479214
-2.63585754796 -0.546432401977 1.39421814558
-3.8005627554 0.163584386635 -0.0117823716847
1.15130012191 -2.20435458656 -0.711895926664
1.05616914111 -0.521137950657 2.74278211429
-0.813572955084 -0.116950248592 1.74495433665
0.578936689543 -0.0284546554352 1.71517875814
-1.46890352454 0.0366922738407 0.706806937544
-2.30099700619 -0.224653394055 4.13178634595
-3.57943173493 0.365517116978 1.71662737652
0.201177292346 0.00524102705187 4.77103148057
0.969640934149 -0.298289656016 2.54605042355
-2.64613902191 -0.338941615492 4.81563762052
-0.835250012067 0.913285126448 2.64594056827
1.05818903533 -0.313731092031 2.81883340687
-3.02227544466 -0.207375056674 -1.00767131509
-1.73797550314 0.102404368207 0.780939969575
-1.11438863519 -0.349599607979 0.287506434739
-3.6165998736 0.612185297693 4.62952417461
-3.01327920634 -0.188346332942 -0.982636928333
-3.41176921475 -0.134841523711 -0.583889633597
-2.76558408969 0.718755036084 2.23304755259
0.246087567144 -0.0396543650352 3.85712592011
-4.02520963274 0.115148016172 4.01137197119
-3.02371109356 0.00823890642577 -1.0046020544
-4.19568082592 0.0628722531002 2.24986318965
0.805181798989 -0.31783425768 1.35726728693
-4.21791140877 -0.940927650833 1.13757824828
-2.77105188147 0.0940408062428 1.59137739715
-4.20572887807 -0.244744398871 1.30057253794
0.451239489147 0.533118541074 4.80234548707
-1.39989862911 -0.884380371898 -1.08021764192
-4.07796690509 0.229154468184 0.961255483003
-2.67174659083 0.147624613861 -0.98252527253
-2.49506839046 -0.450377632811 0.979916149022
0.952594226031 -0.945376064148 -1.54862416519
-2.6102658096 -0.692906525341 1.08550084658
-2.36418405407 0.212540326453 -0.979405264522
-1.81843745858 -2.57894226835 2.10929950843
-0.809306717329 0.118437575372 0.341959428464
-2.662601571 -0.171169949603 -1.26902973455
-1.5231925066 0.314624971046 0.816658256211
-2.40891016259 0.0915611886893 3.84317471024
-1.67664668877 0.629707230954 2.73089685218
-3.57079611858 0.743158285806 1.67812679682
0.896533155039 0.393016632243 0.390676457728
-0.773141294326 0.600877497385 0.787475162554
-0.42097919568 -0.620223734253 1.07263340416
-0.0126746338126 0.0335532069172 4.76952163386
-1.25632130512 -2.40190515699 1.70476026514
-2.47919528391 0.388362276777 -0.971344511366
-2.39936164248 -2.00470132253 2.56319656185
-1.10112487503 0.485286158895 -1.07733316632
-2.64183330155 0.616351267425 -0.974809075604
-0.877926951262 0.328767224853 0.374129882142
-3.85915373146 -0.855744103214 1.74737940987
-4.11207775002 0.524707915244 2.8457076322
0.889327719408 0.463164753918 1.25142590758
-2.97688378421 0.227714312097 0.338124456267
-2.76850340099 -0.0675376006992 1.69013632032
-1.03216987864 -2.57015440885 2.25390128331
-1.30257635053 0.172767775999 0.810091794653
1.05275551476 -0.287002244826 2.73869361698
-4.3848312429 -7.88965720487 -1.003567559
-4.6444406715 -1.35655278 3.73767324819
0.539265584036 -0.656483371414 3.55396269878
-3.96575098992 -0.0241510731726 4.48138560954
-3.60396888028 -1.25449799773 -2.97080728712
-2.77287190539 0.235877048494 2.1154857391
-0.417658722402 0.355180421541 0.835981951161
-0.490220729507 -0.337844293309 1.01222267887
-0.808551091626 0.090872119571 0.229986075048
-2.79209677966 0.0105550936963 1.36419284655
-2.77263308154 0.157937028271 1.72377351858
-4.21759093407 0.859950227598 1.99939376642
-2.5080765966 -1.3177116322 1.03789177468
1.0439903862 0.558737342684 2.59201148109
-2.46942314342 0.657797838421 2.75767253606
-1.31886839198 0.688675535188 0.425957323337
-3.97787917611 0.642549914865 4.73800773324
-2.55018743117 -1.27660716526 0.542071797802
-4.62053695205 0.696099640561 3.79407137788
-2.38114146827 0.813978648627 2.75618779272
-2.25815427843 -0.00991152669977 3.73489177799
-1.50855239652 -0.14285805303 0.706443612573
-3.54871325138 0.635022788652 4.72972009536
-2.77649170974 0.175255976726 2.70861454321
-2.48763847938 0.653804790731 2.76379445701
-4.05385206662 0.194431311654 3.42357222898
-1.62975092666 -2.53437480932 2.62256807526
-2.96033165105 0.486751336927 -0.999803833205
-0.76415634612 -1.51585066981 -0.783649565973
-2.68500245022 -0.111193336522 4.80593591271
-2.77057563814 0.153457062438 1.1485152462
-4.12269796461 -0.458205307957 3.29763067185
-2.24943750606 0.668262720906 4.78228095862
0.898981633386 0.00480751666433 0.222952270386
-0.114428782676 -0.783516702646 4.80031402292
-2.40228640966 0.0162404818596 4.80178860999
-3.63085291203 -0.128098091637 1.64781675979
-3.35279997312 0.443074780775 -0.685878434074
-4.25241182822 -1.26147965513 -0.709561901466
-4.10104961747 -0.137091874811 4.03286848719
-3.81352443417 0.0765533837152 -0.0257573169886
-4.69932318037 -1.41630241673 3.59224368299
-0.816322275199 0.210907363315 1.92389166048
-1.337633451 0.564816640954 -0.971817786771
-2.39155536434 -0.503331841312 0.959862601431
-1.24715900212 0.582718540228 0.524339548575
-1.21698444979 -1.22921037649 0.64898787807
-1.34547052742 -1.21710888523 -1.18516713461
-1.65579047599 -1.28684116275 1.29084767566
-5.91196813287 0.905213218375 2.46326110324
-2.78763680912 0.153873573116 0.766098985518
0.809132471405 -1.02839597897 -1.36240642614
-2.7742600738 0.231818980061 2.08994648801
-0.00657806088184 0.134299178263 1.97636122235
-0.743469307449 -0.220116317832 1.173549011
-1.64411349531 -2.15526350236 2.28252454098
-1.18410648749 -1.72369197145 1.90943645044
-0.759973371106 -0.0353648488254 1.31061743637
-2.76941949488 -0.0639788346725 1.95031250454
-2.31870724634 0.61731529367 2.76074213793
-0.691839072471 0.496646601995 0.607589013637
-1.45437463339 -1.69784316669 2.38046923874
-2.28770266555 0.102053419094 -1.01877799214
-0.658908827161 0.504889201917 0.610979797986
-4.22512658716 -0.961440028022 2.3824448361
-2.73444110165 0.103692281001 4.09001939368
-4.03148897898 -0.690433885666 -1.0535799223
-3.65184352085 -0.925819900794 -1.10804186442
-2.69065183012 0.169200592352 4.79340812273
-0.397648208264 0.219042516847 -0.865564075663
1.04968704395 0.229367939909 2.03961625704
-4.01144719375 -1.7431244401 1.50258624822
-0.759757823256 -0.496981410313 0.155976297729
0.885061798368 0.466763072224 0.00906012980359
-2.19519963461 -0.314706753228 3.81552159533
-1.22218632242 -1.39900150327 -1.12681857518
1.08385722277 -0.798148270196 2.34989325546
-1.37711658508 0.477300493952 0.697064679183
-0.313437546978 -0.127990151293 4.77786224134
-2.40409995714 0.0201004719483 -1.01970900984
-3.18091521481 -0.158375466983 -0.90264195738
-0.737103404102 0.726597450458 0.171252235723
-2.51386334468 -2.19329782272 2.84705503254
-2.28175839169 0.227191546004 4.78766454904
0.442437923999 0.63693653453 2.79184121064
0.199944950202 0.413225980145 3.12304104283
-2.79374037493 0.136473543144 1.72165921456
0.702499002975 -1.69426497363 4.76359924993
-2.5223390704 -0.333942145064 4.16866567199
-2.77150655663 0.0857532590962 2.66534402976
-2.42227100157 -1.69541974352 1.38959470175
-2.77267734229 0.0126157454873 0.872554709359
-0.80331752941 -0.380659661237 0.582684959996
-0.803771411191 0.582970849577 0.195231163372
1.3639358736 0.870661729439 4.80808073146
-0.801047340016 -0.0983839991138 0.258621112015
-0.618834146272 0.0913906291914 1.18897993602
-1.85290456085 -0.120251649903 4.78740782277
1.03877851167 0.11087407976 2.57436587437
0.892031708982 0.692156809239 1.25856570251
-0.464393035304 -0.994643730779 4.55042636022
1.04320279085 0.36050523991 2.77919218864
0.474378117753 -0.94399558102 -0.156208372791
1.06431685373 -0.0633866522519 4.11371339615
-2.79201883 0.367179420233 4.78686909418
-4.06744188413 -0.00764174792551 4.54387462739
-4.03133497519 0.603610608122 3.80777039716
-0.969470737858 0.521338538658 -1.9408953602
-4.18245589216 0.114433660983 1.06805241712
-4.05694098787 0.743872910447 2.30015766095
-0.630103283943 0.80368324128 3.29233538722
-2.55573995802 0.195146459021 3.07488598723
-2.55907485005 0.13401083061 3.07168855942
-4.13772749774 -0.0611374673999 4.83781454291
-3.86813225169 -1.9872003398 4.99081588584
-2.39741980381 -0.112034957872 4.80453310514
-4.04053444711 -0.0609823643088 2.74346448622
-0.466130837372 -0.45443944763 0.886563795801
-0.990020610822 0.00733418923416 4.80901614066
0.592620853033 0.14854611469 1.30527042667
-0.676317087773 0.690712842072 4.79315218443
-0.426413572003 -0.0665240793229 1.46747519175
-1.30083666529 -1.49281388491 1.50979471171
0.469812743361 0.260994055104 1.65226993591
0.893722235245 0.304345931045 0.814167848406
-0.356699947647 0.414839128688 0.914781868765
-2.27024680734 0.103826153029 -1.0010551497
-2.31214107817 -0.141960039216 -0.961319800498
-3.03125171888 -0.181997000104 -0.991079582255
-2.51921073082 -2.15207352378 1.17181628708
1.09247305026 -0.532483989782 3.86089293689
1.18040877475 -0.447711714079 1.66848597446
-0.88370800078 0.121782026803 0.46984849522
-4.07351223783 -0.879653160266 -0.732416273847
-1.83584304541 0.0166860843237 4.79816881173
-2.84508132991 0.122479664043 -1.01324441719
-2.2801997382 -2.02070523601 1.28271684273
-2.55826707599 0.328900763188 3.09092279259
-2.77076617242 0.294581130089 1.61222893087
-2.76755578954 0.398774979422 1.67051039335
-3.00806437346 -0.775419095982 -0.759902129318
-2.75636922561 0.281808670595 0.81207199699
-4.10813203406 0.607522983862 4.48234795709
-2.78061714566 0.132169553238 1.70968334099
-4.40723520756 0.396246816717 4.16539617933
4.46316022253 -8.65157576921 2.10282824508
-3.75496386949 0.435309530717 2.58727069249
-2.83223765706 -0.413416058326 -0.9840874332
-3.9732868981 0.379091529603 4.44510467766
-0.459350103056 -1.00186508224 0.434296937152
-2.70373150307 -0.157936299376 -0.996309516211
-0.958510190221 -0.426865933634 0.0972762392795
-2.68380739195 0.48129901481 -0.992207944977
-2.30244639695 -0.398632124233 -1.0121618319
-1.09473840399 -0.350777614033 0.298212012032
-2.37605052776 0.21855683516 -0.993457510076
-1.151802988 -0.881158878569 1.40293844747
-2.206752161 -0.318450288247 4.10461655057
0.394914557347 -0.686637989723 -1.00894414894
-2.91801162896 0.307538257806 -1.01541207364
-0.429065714247 0.0507091929181 0.903059045483
-3.28450459603 0.342060195946 -1.006548057
-4.49679151837 0.260866602742 4.14795433601
-4.34275393667 -0.0423181178658 4.54378203585
-1.95159575083 0.025631258937 4.83265328537
-4.09883842892 0.76128713752 1.4015933923
-1.95066211864 0.788482777079 4.79023491952
-2.77214541123 0.320580773233 2.16917769104
0.898726169276 -0.00822619157788 0.39077790922
-3.60486994182 0.179511869491 1.77469678806
-1.67694303876 0.62732852006 2.73225460007
-3.87344193431 -2.37921592285 2.35070086456
-4.07723445786 -3.38282488542 1.42962105924
1.0412091128 0.704933513781 1.74793755274
-3.75479344438 0.176543560422 -0.0463135304272
-4.1129775812 -1.53573069295 1.50484186989
-4.08876959451 -0.053114897223 2.71584241882
-0.867974289407 0.0175314999529 4.79513879293
-4.17984553259 -1.3032313061 3.35319308259
-2.61792400655 -0.561545247716 3.75995496645
-3.0250392042 0.0800611966316 3.99408392254
-1.34370489233 0.358746075924 0.803617776428
0.896932947327 0.304234944701 0.5314580295
0.893627141089 0.0439221473044 0.930324275364
0.899073228095 0.0540582675378 0.618014596506
-0.863969782747 0.287671075451 0.18434757868
-0.863813001787 -0.323239425974 0.55120346363
-4.06570964734 -2.14368296912 -0.396286924351
0.0806014835633 -0.385759498558 2.77972213747
-1.21406198905 -0.125236042524 2.91972487346
-0.866119190066 0.659548706673 0.187034578197
-2.21045798132 0.528744550438 4.78785890115
-3.5338066222 -0.143339680494 1.80118611956
-0.808823082743 0.30081362103 2.34470154712
-0.0768597963351 0.503282050983 2.06357345147
-0.489645431322 0.0363575464642 1.00823486641
0.567647266106 -0.165476292218 1.85974536199
-0.347838614355 0.795340531684 1.02057474492
-1.93101772482 0.238027746371 0.840520406019
-0.794283212103 -0.0313951589418 0.690564146384
0.894496262464 0.60238380252 0.898497970773
-2.82830891308 -0.146548539824 4.78765908313
-1.26355651978 -0.824697744731 4.83423077268
1.29757597613 -0.64024596706 -0.962272210394
-0.209507145018 -0.0306588262409 -0.795484923703
-2.46483503686 0.539715100161 4.78504451358
-1.24006832293 -3.85228673783 2.18260501684
-0.553054378943 0.333724675197 1.27959662726
1.01515164346 -0.729738141424 2.62616689974
-4.19009557414 0.11325049149 1.38619836869
0.899079586981 0.649447381164 0.74088418168
0.895242107987 0.356205050905 0.364817955361
-1.12033232158 -3.93646733224 2.34863896807
-2.96693424841 -0.218088429226 3.69559598126
-1.1126780772 -3.85352413868 2.31367666101
-2.02097766868 0.743913721142 0.690189433571
-1.14789107732 -1.57456891566 0.435154309131
-0.661400416484 0.194495704686 -1.04043798752
0.897095991401 0.0635188024342 0.161549652301
0.899818259436 0.0644240313306 1.18382765253
-0.766740896847 0.750706428196 0.791729269337
-2.77910785025 0.201501558398 1.49882573065
-4.18017046427 0.819875758663 1.88772877482
-2.7697363995 0.416990840493 1.20278933576
-2.58643813807 -0.217886939194 5.12801904913
1.33393218642 -1.06923823359 0.656379599375
1.00694427905 -0.247200514219 1.73739458258
-3.64792724434 -1.44169297691 -0.375750309963
-1.78852502203 0.375001896721 2.76784404905
-0.471738248252 -1.01707890163 4.60310689665
-0.8613000958 -0.482836366536 0.123319891512
0.532144274692 -0.0321330218457 1.5275326322
-2.87153606461 0.330201202641 -1.07154380052
-4.08707383284 0.750674765878 0.940795504059
-2.49978301867 0.580694536818 0.370505150461
-1.28014934367 -1.19686657486 1.54036727491
-4.31179590157 -0.670984849349 -0.663936928735
-0.664557236238 0.666616694158 4.75178350142
-2.57807218054 -0.000455199681303 -0.991330291755
-3.19967479959 -0.147850106438 -1.02371266132
-0.3459696096 0.472897856328 1.00763270561
0.674648598426 0.63193890184 -0.170706361119
-1.14194039152 0.330145427861 -1.02793957169
-0.804332099952 -0.139480272324 0.255539507431
-0.806861021384 0.289460232513 0.155442995726
0.881147489615 0.291360232312 -0.0324977740095
-1.52600995629 -5.31950042418 2.45800866804
1.05321694141 0.115366548818 3.32374080189
-1.92215138368 0.0120060360693 -3.35086875543
-1.11359765317 -0.277395719272 4.79672843349
0.592507742894 -1.10927046666 0.71809068272
-1.82932482744 -0.533363607539 4.68226602779
-1.74308617988 0.00267119871661 4.78872694735
0.208915312911 0.486268569304 3.84493814533
1.01472758397 -0.762190901772 3.03897863976
-4.16759114129 0.749649560676 1.11598229963
-1.93751544234 0.223280312091 2.75161211099
-2.76984630943 -0.104927022356 2.52358604476
-0.766674354906 0.571548992872 2.74771900714
-0.600157329613 0.774177862166 3.22247893649
-0.692053826013 -0.874193353625 3.30987107959
-2.79833453457 -0.262816115487 3.80031337472
-4.42608315779 -1.52657407126 3.35392943081
-0.182157732922 -0.306335967116 -0.868803020173
-2.96441538316 0.510471840444 0.256969892784
-2.76973926328 0.444424076904 2.30718846645
-4.22490036226 -0.570131655781 2.32269438364
-3.98337896785 -0.935786323717 4.78211097041
-4.07741788304 -0.388161016073 3.25776379328
-1.71277171594 -3.66928356924 1.44367780835
-0.429970818107 -0.618969483017 0.97668266519
0.492914828616 0.815111836578 1.49069932741
0.0987427697673 0.320064865626 4.73320055619
-1.09782974943 -1.53047931342 -2.57468246431
-1.12737588226 0.338753940089 3.066592349
-0.475112229893 -0.736472167352 -0.339651245822
-0.743700527352 -0.845486596278 -0.442581187623
-0.786331690955 0.602028606055 -0.919456894122
-1.15711343532 -1.41548973576 -2.36608830532
-0.445497209821 0.0482003546468 0.908783966553
-0.802671227771 0.417093263387 0.259633641547
-4.06733854526 -1.30686450291 1.60371364707
1.06265588916 -0.408700168733 2.43535538865
-3.05767079987 0.27706979914 -0.990686863147
-3.00876986413 0.38815356798 4.11761477649
-3.25633233512 -0.490100548485 -0.980942012896
-3.12902911493 -0.119598193559 -1.02097333959
-3.34432459658 -1.07478135792 -1.08745321334
-0.851077529267 -0.202973156439 0.133769473877
-2.77856621386 0.221828293591 1.14513360929
1.05844307998 0.701348304993 3.509715697
-2.77098566975 0.224880919975 1.59101032219
-2.76886355508 0.223026604543 1.5053835452
-2.77081814806 0.154502943913 1.15245833592
-2.76880529304 0.425242610042 1.26701270108
-4.20814798642 0.815600987821 1.32008239812
-2.14000757826 -5.01116061313 2.48286651345
-0.886639257996 0.504384036391 0.835497609233
-3.31335925975 0.564567953497 -0.981769681014
-2.28154499266 -0.0104850466499 -0.974807348406
-1.53851319475 0.21216915651 0.691939658444
-1.60901985533 -1.41301387961 -1.37604865341
-1.32277351398 -1.52676467203 1.428637299
1.07350736164 -0.333352949518 1.81500377874
-4.13494367414 -0.704580803313 2.45780452026
-4.15999184081 0.078173646624 1.29307552608
-3.87183227914 -0.374316906442 -0.088632539747
-4.13307768281 0.146858887526 1.44750183089
-4.1372908336 0.678489823278 1.65179198274
-3.73712005477 0.586241189894 2.58854766709
-2.54179442494 0.829366440634 2.76279913561
-0.640141152345 -0.444756584072 3.32327913122
-0.582928935318 0.771237178903 3.28984488918
-4.24834621921 0.716011631351 4.52040420427
-1.34884513529 -0.402423150436 0.609288443185
0.344851323968 -0.072226168726 4.78354091184
-3.73840609104 0.41778137872 2.58981227474
-1.47873549833 -0.123200489206 -0.558759989866
-0.809243008251 -0.275397718123 0.679299693427
0.894887037416 0.694822146333 0.924608129754
-2.77251302212 0.297852744336 2.53089638783
-4.18539381486 0.108645671021 1.08784581211
-0.640555208731 -1.4802375803 -1.09925053745
1.30589161853 -0.448503522808 0.999654812276
1.0661817042 0.12375249881 3.42146342261
1.06201215023 0.0142972197312 3.49283582689
1.06667705906 0.726845366158 3.4021382026
1.06385313863 0.443933861762 3.4667230167
1.03557362931 0.492054701519 2.21741663042
1.05706868754 0.317876981201 3.06813501392
0.751120290632 -0.635140655428 0.368656005963
0.938883561401 -0.395292675034 2.8524059215
-4.29043091853 0.653558911165 3.09653280448
-0.720837524929 0.390690777718 4.77602353693
-1.56002068171 -2.81378975275 0.992131939558
-0.167764153841 -0.0222147580092 -0.902694370399
-2.27278653077 0.313067851784 2.75404871392
-1.70232046785 0.475873276421 2.73840325021
-0.438746849577 0.0586626014194 4.79838449532
-0.913835991173 0.191532435371 4.78530989993
1.14142477292 -1.91295831008 4.85178509419
-2.33355337402 -0.127097767508 4.82018332698
-2.57764351021 0.320127254608 3.07311512045
0.746024589049 0.763075181222 1.04927219934
0.751092941969 -1.8873028172 1.97203994099
-2.80153545871 0.811633092044 2.69802237224
