#.PCD v.7 - Point Cloud Data file format
VERSION .7
FIELDS x y z
SIZE 4 4 4
TYPE F F F
COUNT 1 1 1
WIDTH 1078
HEIGHT 1
VIEWPOINT 0 0 0 1 0 0 0
POINTS 1078
DATA ascii
-5.66303559383 -0.351646321632 4.8525807992
-5.68201310663 0.332416609719 4.58401550294
-6.31862843869 0.723403525146 4.38872097354
-5.73847117245 0.477917177034 4.43135548395
-5.77924687184 -2.4489426207 2.31280749273
1.49310723442 -0.388826573195 5.54957309813
-2.5851048546 0.528769762722 1.281052862
-3.03461447036 0.674180307667 1.303631409
-3.06715928295 0.68948592291 1.306573266
-5.80678850227 -0.34169029907 1.36247173327
-7.285898096 -1.40654804827 -0.982911444198
-4.13776590074 -0.37894409229 3.92673082379
1.09885955676 0.375354461007 1.03097374555
1.25830286803 -0.273774625365 -0.115276492576
-4.45490694936 0.461194680645 3.93833368912
-4.29464400456 -0.186373803867 3.93294576899
-5.65449164037 -0.17133550439 5.63253363534
-2.78514030627 -0.502482208234 6.32966794409
1.98937496098 -4.07477085028 0.990532964743
0.52616545584 0.142651003277 6.71388002016
0.818892290111 -2.22460435633 0.316095230416
-2.77358182299 -0.21511875647 1.27780239181
0.979383478066 -1.71676440329 -2.12242772626
-1.73749007718 0.178687482682 1.32285839553
1.00892820942 0.820367701156 1.34403985567
-2.21727545249 -0.0555286036798 -1.07184434306
-0.965780529625 -0.489203548433 -1.06430979137
-3.21243680281 -0.279992223459 -1.02218490607
1.68961419509 -2.01217932955 0.288567317869
2.84318838888 -5.35674791522 3.23385185274
-3.58640535665 0.393844245491 -1.02923366565
-2.44681019116 -2.01223405519 6.80769934543
-2.41837648187 -0.108539070641 6.5259552301
0.0975288103897 -0.354168163701 -1.01457654514
1.33196523383 0.693115088413 2.50250009663
1.57354192556 0.344056738107 4.86021045643
1.48055475134 -0.664792736321 3.12608630964
-0.92805148949 -0.740144048213 -1.25948376174
-2.24017746127 0.438049665893 3.90453508199
1.47699228051 -1.75717887283 6.77459728851
1.05179375063 0.0513078347185 0.112641748247
0.999307485434 0.662966594065 0.77673035645
1.05323091924 0.206973963809 0.113574430596
-1.10783541293 -0.0502832811811 1.97904171547
-5.82556981418 -1.20596141393 2.41566980234
-5.90531473976 -6.91417465073 3.39976474999
-5.84730129765 -0.506674739856 2.07472408791
-0.64182699381 -1.43997214305 3.90951645566
-5.84872616386 -0.436561526308 2.146585978
1.40112714264 -0.958039257168 -0.944277720922
-5.78131531494 -6.62386524324 3.18846754098
-5.88146677088 -1.75709858352 3.4574104903
-6.66473380987 -2.54774022541 6.71380101005
-1.69927963694 -3.7835831544 3.04839846581
-1.39902116342 0.441767211818 1.21896613653
0.165701899141 -2.79132970928 6.84989328332
-1.4854656799 0.18373102396 6.80535329924
-1.99009109583 -0.452571751874 6.78858503769
1.32048069658 0.373838549344 1.18975086091
-1.9078499409 -2.46577669898 6.82937620502
-3.02327262542 -0.0704378764352 -4.41541736753
-3.65915144918 -0.305054256387 1.27759519661
-0.821531742079 0.722700440959 -0.87627650328
-3.57036769982 0.183652925852 1.27960838405
-3.47175616165 0.325434574285 1.28298984011
1.29675129263 -3.04444977882 6.51189077378
-1.1920033087 0.520914856747 -1.36783159881
1.50597354281 0.288659603406 3.39831172937
0.273603095175 -0.122812572643 -0.590446183498
1.57262945765 -0.404730461674 5.02923767328
-3.67653337952 -0.367110546226 -1.38219477399
1.97700653047 -0.840062605935 1.67112276023
-1.17189154816 -0.286550403951 1.4508161431
0.830516496517 0.788553592048 0.0866671394192
-0.129339638324 -0.417203674214 1.78720267563
-3.08149355302 -3.07599940363 3.96683794109
-1.08122734388 -0.139507900232 2.5590378068
1.58661606727 -1.13323328076 4.01205220377
1.59338241271 -1.64441210315 4.31644624879
-0.162645833149 -1.52257728903 6.33732515858
1.54412736107 -1.06914760941 0.330314717166
-1.21593446164 -0.914468263009 -1.2124351223
-1.59383103456 0.715966576785 -0.969862913938
-5.83145212816 -4.72505101837 1.71120402597
1.19969298515 -0.383368610722 -1.59483542762
0.434011708227 -0.322658711902 -0.864755546637
0.137759908223 -0.564630775342 -0.813512004941
-5.6299861981 0.363832660067 4.08052403602
-3.17361645482 0.0198749347909 3.91621382264
0.0947262327054 -0.350695263045 -0.861887616561
0.527263353034 0.360245800064 -0.849318210962
0.25478092221 -0.0953649454863 -0.891487714024
-5.65316653964 -0.0415867996014 4.59442181578
1.32715223119 0.427812400322 0.449892175767
-0.705496097665 0.345878572779 6.78824526064
-2.27989420885 0.560217291921 6.76586906005
1.50512365922 -2.75729371296 6.32904841909
-1.79712097821 -1.43671930161 6.84021296619
0.925840572371 0.173604233392 1.48732990957
1.51951767224 0.531174265127 4.01164245904
-1.22650534575 0.645776676245 -1.8179557669
-3.95416467296 0.394982566394 1.25110807398
-3.95077538812 0.117924933195 2.72244976088
-5.70278131732 -0.941898281934 5.23669631822
-5.0522898777 -2.36036022231 5.96022241645
1.38533288676 -3.02540513363 2.71473352281
-4.36489142304 -2.50037037117 0.168824912366
-1.11138220471 0.196527616237 3.88278934425
-5.28736942257 0.69055989666 1.90569847936
-5.25738859208 -0.0424894314082 1.83389083567
-1.58036694512 0.778360765257 1.33564919546
-2.63524561703 -0.697234525528 -1.13315497077
-4.69850106941 0.0923179654389 3.87881408375
-3.96995369999 0.149400107264 2.9606940256
-0.824727284862 -1.2618860561 1.77856781527
1.32621261786 -0.237495430415 1.40167139359
-6.52616257818 -3.85249049628 -0.759378318649
-3.93324719248 0.669902515194 4.2126400947
1.32030628127 -0.326389052281 1.14953813354
-5.9491896825 -1.16278440941 0.530335907721
1.31971940188 0.212533492061 1.21883337422
-4.26989374916 -1.00561046353 -1.06281741709
-4.53236518493 0.595798449157 -0.989985534309
-0.853448006219 -0.0131540426201 3.87890439395
-0.5670550272 -1.34500405193 3.87115769424
-2.07042800889 -0.635943838023 1.29780693707
-5.9417046387 -1.35866674362 0.902075613354
-0.831113953686 -0.461599272216 3.8260600045
-1.08769071353 0.526158078896 1.25912455412
-0.60202541466 0.641689618122 5.29584180358
-0.992157096536 0.235931255477 2.31434447519
-1.22053212889 0.985844004367 4.49801329522
-4.29595655239 -1.17597295253 6.59786381967
1.82401844946 -5.44081695956 -2.33061684009
1.89829643844 -4.75253435136 -0.958987866343
-3.02591882905 0.28102409387 5.73012623819
-5.82073833754 -0.322002267911 5.54814851346
-5.54365955386 -4.46930357493 -1.09780977594
-5.69396471428 -3.23657550845 1.8551133107
-4.03609498212 0.796221882903 6.80111198817
-4.17521299746 0.219303137544 3.93415214876
-2.89487909835 -0.357807593438 5.636071477
-2.18513767105 0.583305207108 -1.11013720247
-4.00057475525 0.586265457661 4.04370486607
-5.90898565705 -4.86038574895 1.28642954533
-2.47847658205 -0.90509958916 6.49213149504
-1.34244585889 -1.4757494448 -1.65229327905
-2.43095751831 0.818117957817 6.68625133978
-2.42576101666 0.611806527683 5.96809114521
-6.56957062231 0.700761896093 5.36853680961
-6.75813308186 0.827274454135 5.48936714361
-2.71242267336 0.700179783796 6.51118848537
-6.47272476804 -3.41216803271 1.74315006533
1.47781427566 -1.05089222316 3.94593944831
1.48550084113 0.0102439841575 4.32953872166
-1.99052278646 -2.88291555535 -1.13318724819
1.48468655217 -0.0784464720455 4.30202639959
0.56233374248 0.798119364503 6.83789839808
1.3326034931 -0.0102569096855 1.69876894951
-5.77126723919 -2.89995342366 2.78370073207
-6.07455027113 -1.45737503051 3.49436213577
-5.71813816811 -5.12590178745 3.52678337716
1.76105407106 -14.5352738929 -1.76843843376
-3.27952856738 -1.63832146887 -1.03916681284
-3.95359984194 -0.145716095338 1.39081687867
-1.85718543575 -4.37361015486 3.55896712969
-4.61142520411 -0.699508582797 -1.02305995262
-3.54682925138 -1.50755261071 -1.07326474092
1.54051948793 -0.619264109126 1.5503270555
-1.33177991514 -0.472274535228 1.19627513492
-2.63448796546 0.661023749657 -1.20523605284
-4.45106940006 -0.0852289454967 -4.10918223008
-3.94485317085 0.204173634558 2.79105443096
-5.03091455876 -0.203077403261 1.8107402106
-0.964663286252 -0.636393933148 3.77668677471
-5.38537672062 -0.430632266954 -0.943015875581
-5.55840444182 -1.89100285549 0.347156828951
-3.47695904642 0.0973381892263 1.28287124443
-3.31337144337 -0.716479100962 -1.08034354265
-3.54752578684 -1.2037010293 -1.08501843213
-3.43984686643 -0.362482670075 -1.06075079529
-1.7489874181 -1.62017257716 2.27214779169
-3.86465379061 0.604067359874 -1.03045150958
-5.49915853834 -1.13739257043 0.579924019517
-1.93856867914 -0.499773041283 1.33012867105
-4.50756282372 -0.436603524568 3.93968015338
-5.81630062565 -1.32016122849 3.48419301296
-4.01946434052 -0.137120192038 3.92794750498
-5.66649518311 -0.335094755805 4.40634844151
-6.80240524366 -3.06376626726 4.68198468434
-5.8137697739 -2.24508119958 2.35537237262
1.47633608724 -3.50873985192 4.91873290677
-5.8993619502 -1.10073806811 6.34743887443
-5.64776178354 -0.0325155261501 4.61850082992
-5.41827886329 -1.14165352904 6.81421481131
1.26807596083 0.202062404242 2.105928871
1.24218831457 -0.335980150359 2.31523260562
-3.59385776189 -1.86497910575 6.60239407537
-2.53784604365 -0.665298302262 5.69208699381
-5.85782301932 -3.1578152023 4.54988783324
1.54391259761 -1.7506264858 1.29367450158
-5.75930329903 -0.577539887838 -0.496238433246
-5.80711086084 -2.42041423174 2.81318788568
1.01463429615 0.186596563135 1.2111793934
1.47576869597 -1.93845213796 3.68516258834
1.25858762048 -0.84404779013 2.06718884734
0.33629528681 -0.488438501614 2.01487180323
1.52121094378 0.451856073992 2.53043427478
-4.59895257242 0.578630952008 3.93999149138
1.5812826026 -1.39462296591 1.9338605034
-4.25416712511 0.965276964695 3.93459116237
-3.41750998797 0.0325608841881 1.280051363
1.30731837029 0.219261837216 0.319992543195
-4.81219405209 -0.192885206576 -1.06162480513
1.49711345471 0.617033991966 6.29026698454
-2.6446578835 -0.944065654373 -1.15704005287
-1.22711874235 -0.874862924614 -1.19032094537
-5.81799707153 0.201694196109 1.20138068485
-4.23804584308 -1.04057789084 -0.985105978713
-3.04935273369 0.690276160882 -1.04184244628
-5.44286522447 -0.359876751964 -0.441807732871
1.32204057073 0.149875673725 1.02409310951
-6.64300053005 -1.26524939504 4.16077475117
-1.23310531701 0.662104462412 -2.3476444179
1.331699666 -1.75447629943 2.94782870803
-0.796772155632 -0.427465279406 3.82239596477
-0.843809312257 0.864538211303 -0.838845048745
0.697515498269 -0.448673821684 2.15389502658
-0.423151774855 -1.39556243952 6.54823684842
1.47392564431 -0.106232171914 5.06204817276
1.55081433898 -0.110314985392 3.73738511316
-5.1914974519 -2.28903240333 6.86181466862
-3.9583380161 -0.202951658823 1.4454511168
-5.75709512595 -6.38798538194 0.575586574597
-1.63687737768 0.652517444397 -1.48315141368
-3.96118601214 0.220960436674 3.93474358223
-3.18006414705 0.310468160869 1.2952393792
-2.78130119151 -2.07714759865 3.5201488381
-2.77525950588 -1.91964826269 3.1541915288
-0.581007367712 0.668759710774 -1.24053919219
1.3336714241 0.607340639843 0.73571886172
1.64430483338 -0.814911225301 0.933468004588
-5.63532924272 0.476451027432 4.19306966859
-1.0866938495 -0.187038247299 3.82678411332
-4.87828362798 0.441750742397 -1.0247598345
2.89452121681 -1.95110480224 -0.0721036153138
-5.77735882507 -0.492665918241 -0.615200867993
1.31322095735 0.213513927502 0.115120661016
-3.9684579962 -0.0207567888042 3.02504038414
-3.96860098813 0.0528146625606 2.98888852423
-5.40982383291 0.591549794831 1.23987962098
-0.539166956178 -4.06399229661 -1.68270151912
-2.60531049126 -0.602159085574 -1.86776778661
-5.24336162838 -1.92703355934 -1.15026875623
-4.33098303675 -0.180559912332 -1.03135174141
-3.55862973505 0.483642657858 1.28799815222
-3.64782970751 0.475034115314 1.28193700865
-3.2070009213 -3.31645889743 4.10592994038
-2.30464103929 -2.42604025238 2.36638116227
-5.98244485478 -0.880046044151 5.37351949569
-3.72489981989 0.157851994857 -1.03326824042
-3.58727207282 0.436679012115 -1.03233341814
-3.79821186307 0.279558245086 1.27021848757
-1.74540474082 -1.60444513979 6.8337001209
-1.3564361366 0.27556512006 -0.729845620204
-5.6821920102 -2.66374660473 -0.0512323733267
1.30479513204 0.131429129013 1.45295965359
1.25581693765 -2.26210871741 5.63978283418
-1.20809823052 -0.61593383028 2.34039658044
-1.15494436085 -0.0214948485043 1.43830450805
-0.578446517181 -0.328939588782 -0.912274649451
1.36679839205 0.350764301508 1.58063967821
-1.34285693141 0.595269663879 -3.20393218053
-5.63265898297 0.224120597579 4.29794115052
-3.76208966473 0.409809098999 -1.15534374793
-6.95342226183 -6.5939879818 -1.4727899379
-2.21277943937 -1.75672823374 -2.16820115799
1.46676185453 -0.295423844627 6.28341669972
-5.90249974068 -1.41813453438 3.54069219011
1.4638642132 -1.47860725877 4.41220220837
1.40791750842 -1.25574209415 6.71742505882
-0.260583367508 -1.66679798206 6.83173745703
-1.06515479338 -0.258053846038 3.01643022254
-5.80593653631 0.191537841027 1.19557771411
-3.12623327041 0.40748665028 -1.04323443509
-0.991907182297 -0.198072141619 -1.05704484902
-3.01423137873 -0.116848269967 -4.42131911803
-5.04617252313 -2.95820087425 -0.725396244174
-5.85918932223 -0.938010038883 1.95346132254
-5.80204641207 0.0139300223735 0.861775843913
-3.96081025392 -0.0148948871251 2.12587899977
1.33835737926 0.207216283999 -0.0518496210206
1.84068884931 -1.09257078302 -1.24415155607
-5.83639062919 -1.0521612321 0.0925484488227
-5.51048325195 -0.359389625498 1.86332923133
-3.9538584393 -0.0260857860022 3.09984220622
-5.81995618471 -0.146897004092 3.40851742981
0.9771733581 -0.019623921434 1.09036247305
-4.39892702496 -1.35840371916 6.51365878062
-2.74623010475 -2.12831883301 3.54223366362
1.52593371668 0.0708781002525 2.4954182176
-5.84411013293 -0.188384991515 0.753986968907
0.95041463432 0.518850230752 6.74473476688
-5.75933141561 -10.5935745195 -1.10217473812
1.04788200855 -0.480618807461 6.79801814108
-1.67989606798 -0.457101146426 6.80723757762
-5.75099278873 0.391633239476 4.13221946442
1.3099314473 0.769706479546 2.14180465335
-1.07658748393 0.801764674689 3.83007202328
1.04295659854 -1.58269281054 4.64980308573
-5.12485589962 0.590074884601 -0.894598212428
-3.02787173834 -4.62158901896 2.09941213251
-2.46106480151 -0.424685618836 6.62431002356
-1.20263623652 -1.67288232492 6.82833328932
-5.78390411451 -0.809884403724 6.40849832436
1.0046556985 0.621843448903 1.21171824973
-1.44848367574 0.545044040329 1.2816903555
-2.56959449934 -0.597909478902 5.6699781225
-2.66678548681 -0.217060605396 6.10829140666
-5.60007192961 -0.0368707721559 4.6441381973
1.48885115463 -0.42344620216 4.94858533394
-6.63628504403 -9.28431046414 4.11902671901
1.88626880154 -0.877752916029 1.36683621687
-5.76127516085 -10.4166500768 1.13519800337
-4.20884193946 -0.177829563282 3.92811223081
-5.83461730941 0.0146090466466 5.85473210674
0.763152639592 -0.480688270461 2.04610916227
1.51306910843 -0.484742029859 3.09723657388
0.692479702154 -2.49094756641 6.84423432608
-1.0810745557 0.178887930719 2.48050924204
-1.09154291607 0.288594601675 3.83545739761
-2.40495905478 0.412092228544 5.9767472313
-0.579596495567 0.73813023005 3.65819827525
1.26522279714 -0.311234076948 2.10195989916
-0.734173607689 -0.426623306237 3.81942529113
-5.83552776058 -0.167695769159 1.96384538908
-5.79585190237 -0.171786706337 1.94370707536
-5.90755633718 -2.38967175746 3.02007036718
-3.76344319573 -0.803198559891 6.58651130205
-5.75962316714 -0.16515732698 2.19615766069
-5.85256327333 -1.55094077313 1.75152303781
-5.85501439698 -1.25994037217 1.73597644187
-3.80984766568 0.167687725831 3.92767279035
1.03849185257 -2.57325043283 4.99122915519
-3.71304230381 -0.150549063724 3.92463444947
-5.72091155507 -0.586544665773 6.30800513985
1.05968737426 0.375694082302 0.510323215036
-3.03930014681 -0.868052858503 6.43931059428
-4.04683973357 -0.451664292489 3.92205844775
-3.88521409324 0.801539559765 2.59858667277
-2.78767688955 -1.34430939542 -0.828184326052
-3.09671619007 0.584242643273 -1.14643913265
-0.55673753222 -0.300657333282 -0.951376820181
-1.29135512176 -0.879012354987 3.93206401954
0.338295506066 -0.446799821369 6.53194868533
-3.64784003972 -0.884012337732 -1.02241392016
-5.83873735143 -0.986945606167 3.84245228443
-3.9609299241 0.0671874481824 1.77143702201
-3.75085947014 -2.79364565087 3.78324322976
-5.80359275905 0.81428063079 2.42722671703
-3.95856186815 0.0179311415834 1.7990984109
-3.07650411724 -0.469494758576 -1.06926487929
-0.804371404527 0.314163155911 3.86927185713
1.22637988929 -1.19564536992 2.88515931237
-3.9005840185 -1.26501540329 2.39633567154
1.28069657529 0.212065198129 0.130726574154
1.34774214291 0.132134764334 1.86490852033
-5.50979966453 0.760143776207 -1.02817669971
-6.60774749846 -4.56379898052 2.97363185384
-1.30292556229 -0.188696000629 1.81910484624
1.27725761244 0.136698906113 0.582374118786
-2.18166094082 -2.7223353238 2.36166130867
-5.14056959305 0.584742822076 -0.959629546918
-1.83758072616 -4.05617188822 2.65057453327
-5.64408883491 0.0513450150111 4.09239608438
-5.78982133492 -1.0849154371 3.75239692707
-5.64833009869 0.0473729166055 4.10084399206
-3.74411195697 0.496469998557 6.79302000253
-1.30604485957 -0.00325731566413 1.52290146138
-1.03019458126 0.555930641884 1.26262205406
2.13234571145 -1.14885477995 -1.38306478562
-5.71565494556 -0.548826282706 3.85543263953
-5.68620945441 -0.264990432775 3.87077298771
-5.85565661342 -1.54615385463 3.03706458354
-4.27375853328 0.786468584865 6.80354429147
1.3182352633 0.3615057801 1.36391716568
1.30744962092 -0.306683415684 0.317108938438
-5.88060895982 -0.825110704373 3.13081586061
-2.43104601321 -0.36190428227 6.77526111207
1.51268618163 -1.50589007012 3.05502111225
-5.7069586241 -0.405627290397 5.32337698017
-5.65923870152 0.420532485806 5.58901235869
-2.48146919057 0.21785324401 3.85138839241
0.185221401391 -0.571260088085 6.78817567851
-5.64447425889 -0.293988229252 5.5229183648
-5.82058003602 0.929560071583 2.87464057435
-2.10132714677 -2.66913315034 4.04257843808
-5.28382922565 -3.34883127659 0.246655949851
1.31707728147 0.407324441333 0.909717130875
-4.12300567713 -4.44561256155 -1.11380592003
0.489301872212 -0.118705060076 0.784160933797
-2.88011516441 0.598911800326 3.95607834391
-4.19898429551 -0.506224466581 3.9272578524
-2.77741540744 -0.00535460323552 5.86776337963
-4.37446975152 -0.192971738785 3.93382849621
-1.09543685857 0.138286495344 1.28556523206
-5.69367021729 0.119212203361 5.52846430109
-4.2920317208 -0.21978061707 3.92883998059
-5.21819150226 -0.333658129049 -0.909504034459
-4.28347606176 -1.55711371354 6.90160377202
1.95625720385 -0.695020485618 1.49540054757
-3.19510347344 -1.18205215729 1.71721780588
-5.63845385146 0.321187253354 4.2639476254
-5.58721084548 0.525079644878 5.63982910001
-4.22164270727 -0.244270782 3.92884598343
-1.55150608215 0.609398371576 3.88891204548
-1.69381008578 0.018022750215 3.85650811142
0.122874761607 -0.429291120358 2.04205756127
-4.91458223908 -2.7638049433 -0.791671071663
0.667516095313 -2.51009126105 2.10240108831
1.56709287106 -10.9423284503 1.6445849575
-1.09822938707 -0.0962556849856 1.65174367033
-2.38586421733 0.597734073799 1.27938579273
-1.13436760418 -0.006136881605 2.89671658257
1.64635271582 -3.46176141964 0.812915086678
0.600102832476 0.738811896879 2.00186526875
-4.40472024402 -3.04144280204 1.32562051199
-5.78647041606 -0.913233725052 6.4382266339
1.90766949688 -1.39704765199 0.626026246057
-1.0986703479 0.303688841572 3.33211353973
-4.52470043641 0.648673502965 -1.01938711854
-4.65381956128 -0.35764630614 3.88881772517
-5.80397819343 0.0790290135084 2.03753539398
0.741629492748 -0.589286433619 -0.762988078777
-3.37717891162 -0.193564067708 -1.04125316308
-6.29623156912 -0.144564979268 2.76541657394
-3.9659095258 0.161749696428 2.28531778376
0.0979071238801 -0.631159929449 -0.663927723058
1.04034158554 0.37153068964 0.485588199111
-3.56858035882 0.233107231892 1.27692174178
-6.04790877087 -1.45845539831 2.05049038335
-1.15276189475 -0.751681770809 1.02837900364
-0.363687683797 -4.75769900696 6.89402842917
-2.81213130158 -0.210467255117 5.77677872578
-5.80135571789 -0.807573588336 5.2909777602
-2.57285815696 0.221142534148 3.93201553501
1.57407190097 -0.866202923069 1.26396292332
-6.32686830979 0.559707396945 4.41604085222
-1.5191992274 -0.691961236621 3.89538741699
1.302727612 -3.09315229589 3.09023864897
-3.23940540096 -0.289995134941 -1.0366975137
1.50734767548 -0.778227975821 2.66891081157
0.771156300014 -2.81352774125 0.833998386757
1.23330416228 -1.60383670875 3.08869082599
1.18546739265 -1.40189207117 2.60366191709
2.27761728814 -0.52876406364 -0.00838778079475
-5.66834731057 -0.38372590687 3.91233021587
1.80661183492 -0.518690447517 4.92582517293
-5.89998032413 -0.526966445028 5.78598243299
1.50143312599 -0.291458915781 3.66206708963
1.50419605231 0.470738873024 2.93775110653
-2.4887773521 -0.760590432087 6.16278278447
-2.5564378193 -0.153892033465 6.7522052912
-0.349007094451 -0.484402932058 6.85597351574
-1.11687668229 0.0198610794149 3.03144771653
0.77349658984 0.675872363062 2.14815864348
-1.08573255881 -0.0426564022999 2.64825728518
-3.2815015542 -2.40872914866 1.84949557319
-3.45282189347 0.69067707614 3.91859834122
-5.87436844254 -0.729666343715 6.30356614192
-5.59804740424 0.185388617566 3.87620422347
-5.81904471582 -2.13520726591 0.650341673872
-2.63448584517 -0.699172342324 -1.12850373606
-0.977342211363 -1.78518355154 -3.00506939191
1.49582787555 -0.204279916689 3.86897639416
-3.70563142978 0.758238300685 3.91464146332
-1.53603211906 -0.227976135687 3.87941609663
-3.82087390948 -2.00677788823 6.82494264096
-4.84428824655 -1.32537200248 6.81678198494
-5.52876878492 -0.297184130863 4.43602540033
-5.63756358138 0.512368146344 4.1920855791
-4.67532515351 -0.000383299435103 3.93812922268
-4.53894101686 0.0432918006224 3.93865358714
-4.75111471799 -0.00208712488656 3.96297081564
-5.79081451089 -0.0481516490606 3.47478618418
-6.28903242663 -1.80073912633 2.61248875208
-5.83157205919 -0.473796328941 3.27722514058
-4.87597153862 0.411929679583 -1.01346844112
-2.31550338735 -5.93767119818 1.66721810039
1.4484051599 -1.24587284758 2.73525732318
1.46408978818 0.661426415247 2.58446472048
-0.922734936454 -0.912176087178 3.86705534338
-5.46656151102 -4.68796150635 -1.0469870909
1.59100352216 -0.738244150946 1.73976624659
1.62076500076 -2.99037430231 1.87288642613
-5.71288625661 0.630387008206 0.424294693128
1.38606325828 -0.0154665167389 1.29095432329
1.02232674263 0.202507367063 1.21921664238
-5.78982986044 0.0735825769628 3.12880565794
-5.00950914317 -0.144165672413 1.7336412487
-3.95067854142 0.80385275062 2.2933386
-3.45398068616 -1.20127369523 1.6598052499
-2.23835527578 -2.78835021498 -1.13266016344
-4.7058668575 -1.93548303503 -1.10522534872
-1.78203982342 -2.72910648824 2.43563142356
-4.0172086436 0.716305589624 -0.898020435914
-2.9299587924 -0.397115990571 1.26680953646
-5.89770742129 -0.558342127571 -0.341879965666
1.09387282928 0.819960936889 1.67266616287
-2.54544715034 -0.0702476616916 1.28908680399
-3.13895687488 0.144931935108 -1.04726174362
0.281720960085 -0.382067916494 6.78020893103
-2.67418039374 -4.69669367492 3.28792505011
1.32822240186 -0.378633156071 1.07501261118
-4.10403478219 -1.14789805776 -1.01008074038
-1.18481388346 0.736494528455 2.21073700856
1.3311917145 -0.349267572748 0.982026531449
-5.79396587474 0.469828298452 1.61695692363
0.797005600194 -2.27039391461 4.46903205594
1.45933692873 -1.61722240298 5.00463590321
-0.985977319683 0.165160855316 6.77263645697
-1.35508289773 -1.2139936267 6.8166558169
0.150567563052 -1.60128606438 6.7703757763
0.360758892218 -0.539061944113 1.94023663123
0.287309042972 -0.384915843145 6.77721474554
1.33624367287 0.140216687221 1.42389315269
0.796795820561 -0.51821317212 1.95674823945
-1.17781005862 0.904878273261 1.82554021315
-1.0898745869 -0.737880502098 3.83081026786
-6.42395772966 -2.10368347618 6.04636895711
-6.76963927579 -1.64297553271 5.85075048238
-3.97344161245 -0.527937506572 6.84101666816
-3.85730660002 0.078392890958 3.92742747381
-3.64017118676 -0.464420124475 3.90985475397
-3.97671457467 0.0634495541105 3.93019714567
-3.01311413479 -0.459627024028 6.45539319976
-2.81016317105 -0.0125247847662 5.82966082654
-2.6274744715 -0.367088905129 5.63911663949
-2.43848589645 0.37488574606 5.71750562509
1.34451500113 0.825461823086 -0.050863704572
-6.04256997924 -5.02145654216 1.59609447051
-3.00156326951 0.817296256327 3.94455778899
1.53196298377 -1.93240136513 6.85499318795
1.44623378401 -3.95369885795 2.48466368926
1.36213123646 -2.19007806944 8.75492959136
1.5170705123 -0.885966119928 3.47322053298
-1.93949359532 -2.64027858479 3.58167855728
-5.91068187908 -4.29823698865 1.80591624843
1.50538832971 -0.462856168062 4.46575747931
1.49955913495 0.159709129065 5.11573107238
1.48822736041 -0.476723011563 5.63905941156
-5.63957442192 -0.187901927424 4.1535567689
-3.11060965634 -0.274846376268 -1.05662309239
-5.86638462849 -1.32372830477 0.894313143518
-2.4137782407 -2.74421384809 3.7891846023
-1.08824894226 -0.156686854422 3.16233912419
-4.71264816342 -0.816428867854 -1.02733227712
1.58500689867 -0.977169958529 1.55484826623
-3.68743927531 -0.955579285478 1.67590688269
-3.73128862265 0.130713960568 3.93316266733
-5.76820452767 -0.458655485028 6.31550608594
1.50693294159 0.458848232019 3.3078706196
-5.64070594803 0.219363788108 4.31041061869
-0.866724133541 -3.43023946553 -1.54165695277
-3.06619405914 0.852082411326 -1.01522355009
-2.92753807685 -1.14758899992 5.862131692
-5.64355830765 0.0339827753513 5.30358190698
-2.18158745628 0.630382764781 -1.11156596237
-3.06018558722 0.809812550138 -1.03342096425
-6.07839645982 -1.33860231569 -0.565522630927
1.54031226003 -2.17499171155 1.92153932906
-5.75112078062 -0.752490825396 3.02940296428
-3.58271283344 0.44301913528 3.92647259038
-4.10823746721 0.152251030442 3.84791201527
-0.805046053417 0.667476968378 -4.02168410042
-5.59274229282 -1.4362536779 6.76403861589
-0.177857522026 0.527300001041 6.8096542481
-3.77859955914 0.222301129571 3.93074837274
-1.10494665082 0.0434385098692 1.75797781914
1.49758379169 0.620567983952 6.7741263652
-1.17227264833 -0.18267904033 3.87471816309
-2.08624704397 -2.38089381608 6.86522286299
1.53899387175 -1.27646815563 2.74917176524
-5.41382605677 0.0987142919523 -0.984692778131
-3.11834483219 0.919409040774 3.91160370396
0.911166169781 -1.60001584919 6.78011487166
-0.758732384031 -2.28417539773 6.80441031099
-0.548726969848 0.814174520084 -1.14856699614
1.31868155938 -0.0758687924397 0.732781297233
-2.65939822634 -2.03692341802 3.71267171653
1.55927633372 -1.93914054063 4.47516484217
1.21499206559 -0.840148794432 -1.60048361132
0.708432771381 -0.267750804986 0.130843305818
-3.79370073563 -0.793294109407 6.6564051448
1.30392853639 -0.419312720583 1.98111468073
1.31476608633 -0.0834584205428 -0.0533404426785
-5.793603821 -2.21912824524 2.34566213008
-2.11631554017 0.0583684628209 1.32165765625
-2.27813609508 -0.309597074597 1.32255802253
-3.2399466473 0.490653523391 3.91278447347
-5.6307412262 -3.11055105282 1.93794308925
-4.60117217254 -0.386154779713 3.93910496411
-3.14716947655 -1.86687330321 -0.970865036673
-3.94931762862 0.323613878076 2.06797225261
-3.65284372494 0.635219023174 6.78581774554
-5.63403063129 -3.08858075023 1.93574246995
-5.75993408282 -4.92764700819 -1.51354018143
-5.68912435725 -0.146352033146 5.76120209038
-2.82377851014 -0.27118058936 3.92213099464
-5.7784789984 -0.799455046801 3.7516499351
-5.54112072488 -0.400633788103 5.6174156548
-4.21707686986 -1.95272145075 -0.280116856071
-3.8037798089 -0.10849335116 1.26699882844
-5.857240263 -0.601531159864 3.49371081661
-3.42078037775 0.0558951448489 1.28262835428
0.787389660152 -0.516311913252 2.01005691115
-5.99161659505 -8.02626270004 0.725754603303
-1.08879662312 0.0350849728931 1.75943662203
-3.96673346675 0.0171469832867 2.26502497393
-5.8009661611 -2.50998885402 2.79948220172
-5.31803708036 -4.73598899 -1.17093599302
-1.67804949954 -2.85219614352 -1.08321575108
-3.64655581485 -0.114001423663 1.27569013743
-3.25833888789 -0.0316790867376 1.28611380525
-3.99686401056 0.382205700945 3.84622007814
-3.95544651454 -0.491253531854 3.11125868269
-1.06882281415 0.554464350792 6.80639974651
-6.26685707921 0.222483337091 2.64213508961
-5.72108898648 -0.522019958148 -0.440254247242
-5.76516620688 0.807434564019 1.87582284198
-1.69694709708 0.405480640155 1.3320079141
-1.80553741487 0.790984795582 1.29234484882
0.806841970297 -2.89879519605 4.1057722141
-1.08812723267 0.0499017873607 2.3948242223
-3.05093677414 -0.408223328293 -1.38215574818
-2.11813531708 -0.0680910721154 3.90594331421
-4.60969794322 0.653413717151 3.99720078704
1.33965703151 -0.261011061981 1.12655664533
-5.00831153689 -0.248232369762 1.72114549059
-2.26106339298 -4.44190334692 3.54474148838
1.9263367378 -0.587308707771 0.0726127624812
1.19983305022 -3.2988356912 -0.467996482501
-0.552391622149 0.919529176143 1.0194208266
-4.11909719975 -2.70674928877 -1.03015467994
-6.69131035521 -4.1444507222 5.52317522881
-5.86339694231 -0.833600740154 0.446515703068
1.45995799893 -0.477261030546 4.35389504208
-2.23459055294 -0.450823115478 6.80241135337
-1.59097864124 -0.0856166783147 6.8076502152
-1.99419510425 -0.453444070983 6.81389026987
-1.88369919472 -0.517591581216 6.80852243407
-0.835604577325 0.533071172225 -0.981428500921
-4.17392433519 0.644926890895 -4.35527141061
-2.06230848096 -1.61129171452 -2.50982606194
-1.18453652559 -2.07452830647 -5.41962773051
1.45314013467 -0.804758302961 4.55892761453
-2.91314259306 0.722384901753 6.59249980828
-3.01979154708 -0.777576396351 6.40295973786
-2.84070198669 -1.26831392185 2.93164503816
-0.424758654513 -1.19388094066 6.88165054621
0.93521895492 -0.762860383893 2.02033633813
-3.64390414006 -0.958415823201 -1.23137866267
-3.96165554834 -0.102079927834 2.36896162164
-0.449749533893 -0.367237058035 -0.879434818256
-4.65170055279 -0.194639127369 3.89277888106
-5.87921602136 0.900916580734 2.12814196826
0.990862436454 -1.54549170291 -0.663921755083
-1.04411073717 -0.66964686597 1.32107576593
-1.0847398807 -0.15266255192 1.76807366801
-1.82952837423 -2.75019569889 -1.10502007002
-1.21823782932 0.507730908557 -1.12492826031
-5.41277438059 -0.363303717086 -0.497485452209
-5.78366888794 0.0760413739649 3.17477136896
-5.73100727431 0.840839547713 3.51132620679
-2.69066711348 -4.93584107539 3.35618529067
-4.40632165485 0.68797549152 3.93765854076
-5.6022548586 0.174686476315 4.18739927998
-4.22054040127 -0.138929992439 3.93888124219
1.31896991742 0.226267755004 1.36034739396
-1.08845057857 -0.703097738557 4.11124573908
1.31356922772 -0.203683244918 1.56860659778
-3.05202787847 -0.893763964537 6.04434171455
-4.53946576976 -0.324516938477 3.93778309003
-4.32441371759 -2.02904909633 -0.805899850332
-0.298416075396 -0.366741067789 -0.810343537646
1.3453163355 -0.247572504564 1.21723776497
-0.458948036057 0.233512569343 2.0793678481
-1.0805745396 0.0327551035937 2.86620020468
-5.63753102685 0.221645662109 4.18796055296
-1.07712343233 0.495455670929 3.494735767
-5.63535111696 0.202615052294 4.22763564233
-5.69327643544 -0.503906478155 4.39335381188
0.115324139168 -0.251254776702 1.93945153593
-3.18527064974 0.268778376787 3.92233648996
1.39917323582 -0.717354522686 4.92399204458
1.49059700466 -0.207122439367 4.88550256022
-4.04497514488 -0.600414469904 3.92263577741
-4.41721527779 -0.0509318511536 6.78419954949
1.49548027754 -0.117452838052 4.08471864146
1.48405514897 -0.845663518787 4.85070962123
1.14214017475 -1.6780554233 0.497043498614
-1.44329534056 0.350988933988 3.07848850145
-2.78587052887 -0.141325433929 6.01535727682
-1.10471249564 -0.379516932234 3.26832540151
1.47899517462 -0.472576408286 4.46061302935
-2.07230139364 0.729378053278 3.92025156355
1.96145979094 -1.96677054439 1.57291655519
1.30305025319 -0.234107684286 2.21086244572
1.52905770513 -0.456351677576 4.51057116237
1.43471302706 -0.468134616016 3.11081139159
2.01931377672 -4.08602725148 1.51077709017
-1.09876048417 -0.254656585551 3.26351338082
1.68901402454 -2.20387451602 4.88241491861
1.49147710072 -0.13783412903 4.10741650368
-0.585157786223 -0.433839448054 3.78362876441
-1.09273040053 0.147883986338 1.2642494416
1.27123365132 -0.335153560322 2.09919336891
1.31793951555 0.202703273537 0.0749553449424
-3.93415991548 0.581185927399 2.36835837401
1.30546033411 0.386950205466 0.0445477751579
1.32874450554 0.401846395155 0.125303311237
1.47894322153 0.737169202108 0.130850282852
-5.81531803514 -0.148282180986 3.06552700143
1.33732843023 0.877759788798 0.0762659555462
1.31263778618 0.60041305699 0.074800679789
1.31258741239 0.205198683147 0.320881921182
1.32413265762 0.681644782019 0.525117678183
-5.74195121806 0.579870807451 1.38592032457
0.898537742667 -0.280839339967 1.8700690188
-3.56169104674 -4.48001977772 0.397274891942
-3.22649789728 -1.13304755051 -1.36513597834
-1.6075555304 -2.91218075247 -1.3708065609
-7.02147975419 -7.47875872039 2.81044316949
-5.20709368902 -1.65708967894 -1.01656136134
-0.486845506643 0.414873590834 2.21741543517
0.976041047577 -0.126119499798 0.260274922059
1.1004898443 -0.345984891926 0.616443360151
1.3750397591 -0.457471391925 2.25942358206
-1.53176834949 0.636291869983 3.90846967955
-5.63470249131 -2.97502846274 2.00515646129
-2.18271659366 0.648026457109 -1.1100081802
-0.840948979231 0.538752932311 -0.962092075376
-1.05811172116 0.593550569137 -1.37791953819
-5.66821047081 0.0143980732705 3.87099421915
1.30704188685 -0.891566340204 2.03033595946
-1.08652363813 0.413945468636 1.16678972266
-5.87136439898 -3.56356451793 -0.505937864053
-7.27563921757 0.47629561714 -0.615381175915
-2.87358740569 -0.657529592454 -1.5225721481
-5.47623001171 -0.0986642769228 -1.30420334202
1.32809496925 0.33913094941 1.36263932651
-5.62075959099 -6.58326414228 -0.570209750888
-1.34142908751 -0.182606386288 -1.62015285477
-1.1656687599 -0.625918365198 1.32998748864
-2.18622147944 -1.30747931298 -1.47907961643
-3.1146741981 -0.480119856109 -1.12880566373
0.898290033839 -0.916671834035 -1.06520829576
1.6763762417 -0.642885849987 1.28246106813
-5.11952493957 -1.4930733563 -0.854042479782
-5.12288433328 -1.34214986838 -1.01923459015
-3.92745707292 0.426740010769 1.67600203507
1.08285921409 0.442666901072 1.71727178637
-2.97928191033 0.637523649537 -1.09602112462
-3.94378850835 -0.0635207564112 2.56545374579
1.05876209635 0.24267500561 0.0126317317631
1.94082789325 -0.866778744299 1.14658842356
-5.75896576716 -0.717031096554 3.9426682257
-2.63409349673 -0.244595364379 6.10506178176
-4.31935041454 -3.7648566606 1.47262149381
-2.73588412798 -0.240350822384 5.83708451775
1.32517224039 -0.351138553822 1.61352723445
1.9281046243 -1.52598617845 1.36807080648
-3.23830048749 -0.406841517093 3.91134515866
1.44143695878 -0.300208152193 3.73240016607
-4.97900905705 -2.83557383604 1.00704218002
1.52615040855 -0.275055555188 4.61453839205
1.70089408657 -13.9325370594 -1.03308988861
-5.82456739285 -0.983685886412 4.6999453185
-0.793714539817 0.702342029967 -0.907039198693
-1.98725590579 -0.952154573351 6.81443257845
-5.75209563528 -0.93395974791 4.69173671831
1.32499436191 -0.800693534377 6.00962307216
-2.73714184452 0.071941405386 5.85901091358
-5.83207515351 -4.37563612314 2.57270246168
-3.03509056901 -0.450021817259 6.4058080552
-3.00839686658 -1.89373922368 6.11793446884
-2.80851017036 -2.03801266326 3.15057003664
-2.50864814271 -0.619257050301 5.67680536208
-2.47298286828 -0.716821679546 5.69121316353
-0.931373213354 0.276192276384 6.80189909562
-1.62487838461 -3.01653552376 6.87357653123
-3.0185129509 -0.0382236432847 1.29174840242
-3.18296122735 -0.0360223986943 1.28937725266
-2.69577431935 -0.714090539729 5.70547924522
-5.77129900402 -3.0992490373 0.889802963959
-1.97982775494 -0.53618151753 6.81834029331
-3.73385149704 -0.109250053634 1.27319691079
-3.54912373701 0.272861976555 1.27975014351
-6.44100592319 0.794343407663 6.60196885902
-4.2464643699 0.436410979214 3.93397247172
-3.79052800483 -2.30102239652 1.85371036961
1.51953279958 0.479462137399 4.3029382088
-5.6506669719 0.312248905096 4.12666650227
0.914445057032 0.369443602003 1.6051092203
-3.89551831423 -1.41417217705 2.00454792878
-0.336185187054 -0.484107701032 6.78498402119
-5.99733729759 -0.933085279695 5.3574028758
-3.02977217657 -0.862001922938 6.52335269142
0.0956130964823 0.683807712395 0.100428321596
-2.77750652242 0.449432392304 3.91467155188
-5.83151762169 -0.470174105321 -0.0188028027754
0.999146969464 -2.42356718711 0.545060990593
-5.949811823 -2.91359238159 2.41634658314
-2.53841503245 0.237472523969 1.31043173071
-6.64758156233 0.873799353957 6.75562224621
-5.65520418856 0.00124635532094 5.29936693797
-1.39131776286 -0.134240029862 1.30283252437
-0.527510226165 -2.71579489436 0.526629154137
-3.6620096633 -3.334732443 -1.13207778099
-5.61980713376 -8.86999061622 -1.2343534407
0.564703512444 -0.569302611781 1.90343939224
-4.27535137189 -1.19013531176 -1.76674020607
-2.73489753136 -0.0847933084059 -4.43122754238
-3.99308740533 0.819800301017 -1.03332083611
-4.69947725631 0.160302679078 -1.02164821449
-5.8835412322 -2.39416338728 -0.435685215117
-5.65127675564 -6.6205307054 -0.410939725338
1.2799498344 0.537827374091 2.46927981317
1.53795057147 -0.294790900031 3.81242053349
-0.97440734232 -0.706491513394 2.07616661409
-1.67406265262 -0.460951679965 6.815698524
-0.571950862373 -0.270459648251 -0.894316487985
-5.53749485754 -2.86163904961 4.57457865412
0.974286855379 -0.243618321053 1.27909191916
-1.67470308964 -0.442210374934 1.29828464116
-5.82730049896 -1.12980305111 1.72651758245
-1.20577708511 -0.634287575866 1.37172567786
1.26524741475 0.0955806793744 2.35024396715
1.08786107741 -0.0167716746745 0.134157354404
0.238814873448 -1.03105497507 -1.83776538872
0.190771266755 0.741377202197 1.99779151804
0.907608378248 -2.82926477925 2.28015100636
0.0483249929702 -0.397023600831 1.96700504246
-5.79840134126 -1.37379179575 3.50202788195
-1.48514899989 -0.265604939653 1.32744044713
-1.2133334574 0.694564422504 -1.19260017021
1.29794189604 -0.0136080998174 2.42291198984
-5.88208505168 -1.84763895791 2.69872427022
1.49902149128 0.704638068992 2.99128234331
0.174872457849 0.797815723589 -0.497298684349
-5.83297292316 -1.59947191725 3.0717625263
-3.01100466476 -0.716712161551 5.68554013852
0.755488174375 0.910957039334 -1.34286550868
-1.06007574736 0.801114237404 1.33475814108
-1.32381958793 -0.130641468059 2.72681406567
1.39780344483 0.746466501874 2.49679239325
-2.44794847187 0.648178062767 5.99477151621
1.4988049428 -0.628290456075 3.14064734686
1.45254695459 -0.215613584428 3.22720459786
1.50002564527 -0.465825568164 3.82902595864
1.43568761829 -0.467887533479 3.71833172162
-3.66374151341 0.67664516538 -1.63146233919
-1.53238007158 -0.650589975628 3.9000501383
-2.88537739706 0.432413631052 3.91031367933
-5.06960330579 0.621683044177 6.73878151309
1.18907187056 -0.381994715348 2.45364687315
-4.09309971446 -0.645902496887 3.90356272815
-6.35507612956 -1.8587887303 2.80872642351
-0.192792693631 0.501745894264 -0.067060063707
0.691624110402 -3.34593161667 -0.452298605373
-3.07374286182 -0.371511493296 -1.04257252135
-0.9663985015 -0.640230939361 3.80478323444
-5.72058398651 -1.69418137463 6.81176290641
-5.59081351058 -1.18222829119 0.502427642418
-2.88836687689 -0.619845631648 5.68006366456
-1.3344256089 0.616048237766 2.66397887782
-5.65295725215 -0.183600225942 4.14357528769
-4.61375591295 0.439735065565 3.93052567496
-4.64538273976 -0.0378984975787 3.88569183092
-5.73049984672 -0.768731745057 -1.07778102869
-5.83169126903 -0.905167549634 1.44275911986
-3.9714639544 -0.813169720175 3.89958468693
-3.97100563334 0.0656439086628 2.85547806155
-3.9647796662 0.00699974338342 3.08165823639
-1.10471359969 0.610325651961 3.87304914998
-1.17443965358 -0.0676020301508 1.58192949294
-1.17355733007 0.412191737057 1.80057361377
-3.03458432637 -0.31325798008 5.66200413663
1.45943021535 -0.869268880047 4.56382139561
0.255468466407 0.420336972949 -0.577476063521
-3.006484865 0.731227779039 -1.18036715551
-1.09845842515 -0.057952979864 3.00678637143
-1.71531956452 -4.14250523296 2.92291364527
-5.36488111913 -7.26024970688 0.0134342390572
0.654302116454 0.320476163065 6.78011446837
-6.74393112103 -1.36040044492 3.72690123981
-4.70793692533 -0.0297886454064 3.88936561252
1.50059254631 -0.28991740598 3.65997590296
-1.11636949041 0.397872325107 4.01650966506
-3.68996893567 -1.98123616356 -1.39965415024
-5.91431843183 -4.85764691329 1.55866799541
-4.83124108315 -1.64690169082 6.36117690884
-5.67630672136 -0.518467905884 4.92982963879
2.14858708531 -2.68778107925 0.552376139825
-3.50129066939 -4.85100191095 5.83667081456
1.46129315118 0.603117422021 5.00010328152
-6.83173641013 -10.3010506755 0.714505194981
-9.76130047873 -13.963378495 -0.188767770498
-2.34679775479 0.184991668442 6.78633282722
-1.33260760432 -1.16100695006 6.78429618629
-0.508360767029 -0.565841033065 6.82424081315
-5.63783100656 0.193500030076 4.21183748213
-3.47861827301 -0.240401413758 3.91617467015
-3.54992563633 0.0817418381592 3.92297421276
-1.06123292311 -0.211722735908 2.86051889512
1.73558523728 -1.87360893935 0.979217774215
-1.06171621935 0.530827622224 1.26626946283
-0.107406251147 0.206515948483 1.89436654694
-2.96019887897 0.740452191736 6.55034616214
-0.521532721811 0.400165995116 3.82648578693
1.82378261455 -4.44536860164 -0.841719044215
1.31458265223 0.592797158852 0.692276860865
-3.956086616 0.329244689373 1.86944653678
0.731286512416 0.621551260328 1.85254698011
1.06122622114 -0.459051300515 6.80805806699
1.3164081761 0.122412912512 0.526237570087
-3.95853390829 -0.131444132001 1.63876319491
1.57379455527 0.427585223705 5.90677418389
-3.97139693524 0.0685237762441 2.25924965711
-3.95928679184 -0.20215622795 2.83167485005
-1.73359533108 -2.89117324453 -1.20910201299
-3.95592780481 -0.209155427068 1.51192168536
-3.9591932686 0.0806584033376 1.56824450618
-3.96082333108 0.063868533038 1.70501207332
1.39166288991 -2.57127790381 4.49333213783
1.89850587417 -3.17850041568 -1.35578879844
1.32627957101 -0.248831749495 1.19188475925
-2.47077376603 0.364604013451 1.18732140536
-2.12343402881 0.843977428139 1.20603986955
1.1510626877 -1.06642756065 2.50043566422
-3.57730573939 -1.90528911145 6.62698666548
-5.79510163865 -6.42256754293 0.984826917261
-2.03941890134 0.105774142996 1.3239153799
1.45605556956 -1.40837138621 6.38701561227
-5.66345309032 0.596626738422 6.05100454928
-2.38058790102 -2.47891896345 -0.996460370235
0.155394029894 0.135198232134 -0.94052527964
-5.63855241584 0.170578375902 4.2726166243
-2.89907344696 -1.94106980503 6.48429011173
-2.01369261961 -2.23301286108 2.29270514231
-3.70913464474 0.15201919648 1.26640539324
-3.08552256047 0.0591559650529 1.29116391542
-3.25970422873 -0.436181664495 1.2943290852
-1.2625974491 -2.4932669078 -4.19128598626
0.581348641668 -1.51769307026 -1.63894342907
-2.88828676754 -0.339437697758 1.30247635165
-1.76638596324 0.68607913461 -1.11644595087
-2.47054201123 -1.6685693699 -1.68762919427
-1.38890865034 -0.112671041201 1.30557880653
-0.76407308592 -0.523070135357 -0.99971134224
-0.479509250422 0.123439514119 1.9161337319
-1.08958159512 -0.0594684704235 3.58287774597
0.656872250844 0.335137706775 6.78547324492
1.52136588144 -1.29980379079 2.76470245662
0.85239920764 0.618663139119 0.123470264654
-5.67021745837 -3.16185267978 3.38791154017
-0.973550624752 -0.461729223669 3.87337656324
-3.05308539936 0.214715313986 1.28131389275
1.51960458961 -1.46758983719 3.03985083243
1.17702495076 -3.12269291434 2.51645657821
-1.99150572353 0.13274759453 1.32149000785
-2.43729579714 0.14911785708 3.91147790981
-2.50883632794 -0.0343571468458 3.90563565606
-2.75913390269 0.151915487919 3.9157902518
-1.78114797958 0.0444952836918 1.32701080024
-2.5988207727 0.242698886531 3.91263493679
-5.8003441896 -1.32494043123 3.24732925362
-2.63595556593 -0.206152370849 1.30806432814
-2.56074017963 -0.0775378453472 1.30963291568
-4.09410196577 -1.21018499916 -1.10366085006
-1.09950785794 0.49399175581 3.2728149952
-5.82035397289 0.775658326525 1.59056506877
-3.83101113571 -1.60000209473 -1.06040367673
0.0705378348522 -0.132276155681 1.86990045629
-2.75947382751 -2.29582029764 -4.54204598825
-2.60449879544 -1.85738951122 3.33858263066
-5.62605128029 0.425973251174 5.45127288797
-2.02798457268 -3.47601139292 3.27748946691
-1.17161788465 -0.18154529543 3.87363938914
1.64595095755 -3.18040822826 1.772107987
-3.0955002807 0.764870270421 1.28879795194
-3.40557686488 -0.836226171911 -1.04325207056
-1.61165748765 0.939663700863 1.33100270494
-2.10304867169 0.140733374712 1.32165687502
1.49458267778 -3.69597399495 1.52315944651
-1.85904780843 0.790018561888 1.33657056871
-2.42519331043 -0.313128113798 1.32161505359
-4.47489628776 0.86528549779 3.9383902029
-2.17226993673 0.1415069029 1.32138117631
1.34095258734 0.441434112578 0.319390634328
-3.31150095164 0.277777036846 -1.03822993862
-4.19589109178 -0.548197134536 -1.04599857601
-5.7791668922 0.612040041537 1.0745038852
-1.39618263118 0.795810529763 1.22350850326
1.49639384133 0.57079547319 4.37510745456
-2.53832644331 0.00644308331594 3.9130762201
-3.04520422802 0.186021310356 1.28968036028
-5.84671537688 -0.408913496607 0.946003077729
-2.61407372252 -1.66864993008 -1.10113692763
-5.92556838192 -3.10119630994 0.36843776731
1.27092223263 -0.835335529117 1.99565092917
-3.66817080715 -0.264342721697 -1.04474750033
1.29874182706 -0.265797316593 -0.140973108872
-1.47375101193 -4.76266150547 3.35918316994
-3.58206938867 0.419960087687 3.94518702976
-1.67091587218 -0.492665740368 3.87569226393
-2.4363868767 -0.102723295708 6.5606339902
1.31996513068 0.202505445756 0.694242801019
-1.77968000581 0.181711177813 3.88433900495
-5.58812333145 0.619557167721 4.10362713284
-2.06184850057 -0.539987027878 3.91311662613
-1.13879782376 0.0839815114838 1.47110816433
-2.45849232312 0.379477369034 1.30814768552
-1.37033466038 -0.460157931101 1.17027879312
-0.962237207887 -1.14804415051 -3.52589437219
-6.41788301506 -1.71086097288 5.20331971911
-2.7164438334 -0.713601612799 6.35291040343
-1.63472819273 -0.436399421071 1.33111564626
-1.62898932628 -0.0426386187922 1.32697609527
-6.63375257567 -3.57854902429 2.03000416803
-1.95776009137 0.855365689693 1.33543262566
-1.08359273645 0.285492435975 2.65731827961
-1.09906992808 0.294720962926 3.3290721023
-1.10746990453 -0.100541206185 2.21698697563
1.30851837725 -0.09628148385 0.395145090428
1.33104089858 0.360400641194 0.7388064581
1.33542964718 0.8748061368 0.620149647815
1.33897135264 0.866851667892 0.736487753572
1.44935826456 -0.715506293506 5.29473906848
-5.33515687752 -3.75864658342 1.2704424736
-5.59464181748 0.625388014046 5.51551082839
-0.629458532624 -0.620829892937 -0.952310245337
0.987966175316 0.633240163123 0.902755249767
-0.416685921766 -0.279228679845 -0.857755530107
-3.58120383727 -1.89436450393 -1.03537214034
-5.63946165033 0.431219327974 4.18039302299
-5.82473643809 -0.53726875017 3.24939452923
-4.2451113389 -0.256198134803 -1.0305151259
-4.25730120387 -1.72756711042 -2.01408978189
-3.97071488226 -0.108586595703 3.01415946884
-5.79118685392 0.0945795220529 3.1188006694
-4.01888394219 -1.28029750831 -1.02069845129
-3.6637757085 -0.356608667735 -1.04197710562
2.05643147731 -2.0970234355 0.334115782861
-5.40189647828 0.126112726076 -0.976284698537
-1.03005617325 0.569543658327 -1.15693083398
-3.91311782703 -1.5232615653 -0.496143911402
-3.95749175747 0.0778007022002 1.57101845234
-3.96176621151 -0.0174369283672 2.04777748023
-3.95738525302 0.306497432339 2.28585843742
-5.00378117241 -0.109216755132 1.812589161
1.27553006713 -1.76293242372 0.130447882495
-5.77405946099 0.0755609437405 3.39968161589
-2.58860213388 -1.45637900546 6.47588036666
0.978615816099 -12.8295962366 -2.94723488996
1.64383249047 -4.39497414805 -0.937438290365
-1.12246033414 -0.196354186105 3.85537977763
1.0999039279 -1.34643541224 6.83195349089
-1.29947063975 -0.211142449752 1.32084856141
-4.0508226272 -0.0142378947513 3.93255950804
-3.25844927347 -0.498423689893 6.80671460065
-4.01964454559 0.17184766512 3.95097426265
-4.53364153943 -0.416581071517 3.9518216249
-5.73248673874 -0.489373044084 4.87696556926
-6.83737943901 -2.2915534949 6.32160074337
-3.75362236169 -2.91018834371 6.85304065809
-5.64327510603 0.435407942971 4.18174358186
-1.3200497225 -3.45396578141 -4.15587349933
