#.PCD v.7 - Point Cloud Data file format
VERSION .7
FIELDS x y z
SIZE 4 4 4
TYPE F F F
COUNT 1 1 1
WIDTH 1082
HEIGHT 1
VIEWPOINT 0 0 0 1 0 0 0
POINTS 1082
DATA ascii
8.32368930058 -5.78681203764 -14.8086454796
-3.08274475256 -1.24633322387 -8.17313733661
-1.84099685214 0.670342122374 7.8632454584
0.397039795691 -4.581004316 -13.9638673577
-1.19166354103 4.24624180802 8.56499986344
2.4667660952 0.779518584008 -0.849959392078
6.24607122109 -2.11526478713 -14.7555181093
0.781427021616 -1.98760636348 -11.0733842085
-4.21791578092 0.092069186964 -2.33126902296
-3.97487836082 -1.58056783538 -9.57672229413
-0.920651865177 -3.37708164357 -9.8335855304
-2.96121017078 4.17057104027 8.87270213206
-1.74352381964 -3.3222682906 -9.65509415536
-3.15279756698 -1.28959924246 -8.41686266851
0.59174813538 -4.85458152707 -14.000930308
6.29043887345 -2.84707252061 -14.0177336768
8.30326303382 -3.54783825152 -15.1072693902
-26.6201507939 -19.6079016445 -22.6415695944
-1.8585772895 -0.788396395546 3.89826426783
-6.47474249091 -3.91894421795 -10.7748916227
-14.2449278875 2.50785986419 4.23879278114
0.4766879401 -1.80805056154 -11.0898976096
4.91180707039 -0.89856040106 -11.64014522
-27.2420204315 -19.2658123357 -23.0407650887
-6.74694610919 -4.24058050845 -20.578577571
-22.8140369392 -6.03767432991 -21.9016300263
-4.19229937907 -9.22954504169 -31.653105564
0.401893478777 2.37581454738 8.98104746337
5.25033761723 -0.873686911503 -11.1398195811
0.950079584108 0.655768717563 1.15552794575
6.25302324037 -2.50022623037 -14.8694417036
-0.982100779967 -3.39723902366 -13.6151675578
-7.11278170509 1.36663870874 9.42519093826
-0.0464679649669 0.0249776810795 0.537851335563
8.36352800633 -5.86382671511 -14.3618370149
-24.0566851915 -9.17351590688 -29.8891116303
20.1710471402 -21.1117932955 -30.9312396107
-7.14918085136 -7.73023141805 -29.715845179
-25.9741401379 -8.31719240977 -24.4560936746
-23.4198465937 -8.88680732385 -27.461831894
-25.3590061681 -8.54546753334 -25.8915340501
-10.9337365556 -8.54147930823 -28.2143167132
0.323128921622 -4.48820286812 -10.7094508055
-0.890224608345 -3.33207607479 -19.542379876
2.0277031993 -0.0919318265527 1.06398829409
0.787434424047 -0.24133356659 2.94913967128
8.12901233769 -4.28881123381 -8.60914180015
17.9530391058 -19.0757668027 -21.4749186716
1.8587848745 1.03544007757 -1.52860590842
8.52851146871 -3.0399255996 -14.5602526687
7.40017612576 -4.02451769454 -9.61286976257
2.47396804436 -0.0961063363796 1.48032778993
2.86782053495 -0.557582966385 1.63458568421
-2.2364681565 5.70523112456 28.7521548871
2.63846907129 -0.110136790539 1.56933429017
1.08845902196 0.090409291223 2.49145988649
-10.339592229 5.7973375233 18.8758952937
-13.4662391578 -14.2504181863 -29.0101148919
-16.5883376195 -26.076986202 -21.3986618979
0.202107114652 -1.89609454136 -10.8503762692
-10.1783736499 -11.2583265552 -10.422110181
-6.4274971262 4.4536869283 -2.20927784207
-0.0393077075848 -0.111802863435 0.537745941365
4.84892439085 0.8705429172 -3.18182886168
5.84506656943 -2.47004924029 -10.9552723942
-28.8522670394 -6.73474608159 6.56067440096
1.5262227952 1.46453395227 -1.39474403574
6.37158503501 1.34420245604 -6.01182633846
-24.4263306671 -4.65285603479 8.92067862029
7.26197430217 -3.26231292765 -7.91485560407
-2.39085675374 -0.246468722767 -0.0122966763446
0.0934370169605 -0.508193880691 -6.47024812815
7.58415332042 0.696389579548 -3.18277263054
-1.17217211511 3.7419957734 9.59763015855
-20.7198368678 -9.64749975287 -20.6667069547
2.28966453152 4.41583014208 5.93785178394
1.3135977024 -3.41444952344 -14.7360248159
7.35830948181 -0.824526152456 -3.89153874149
3.86871976546 0.503736351376 -7.16603141589
-7.98249210026 -10.8620613085 -9.02384362346
-0.996899416488 -4.54256521482 -10.9143930525
-9.85936667866 3.28550916457 9.00304166986
-6.91631496891 -3.80564290688 -10.1556065649
3.95637750879 -2.36013027882 -10.8981557254
0.332458431383 0.316108011499 2.66348611747
-0.734645026607 0.486950983519 0.379324384338
-5.82049686894 -4.54634080787 -10.7028013877
6.71887887561 -1.02828128762 -8.71995680972
-13.4462830658 -14.3667003248 -29.0850766057
1.80232696323 0.364884144949 -7.81053025361
1.54700406779 0.719511603516 -7.114880499
-1.83634140657 0.855677247338 2.47260364522
5.15320765249 -5.15910212625 -10.154393934
8.87354600241 -5.08473768444 -13.2713937032
-9.21192592582 -9.96526968282 -9.3914370948
-12.0119421243 -9.33666071878 -23.0406188747
-2.76504724555 0.0715045775124 -0.0659311065609
-9.85760847477 -2.74315601238 -1.01371364071
5.78482844944 -17.9324150345 -20.8211829103
-10.3397780314 -8.61096325161 -21.2612809613
-3.44450586449 4.30349749436 7.42614143212
-2.52321251289 0.64583574428 -0.161394358528
-12.1806427638 3.31319889445 6.63251911881
-8.83267205729 5.00047266974 6.95374091542
7.84783246828 -0.166545873391 -7.52364671677
6.05951645101 0.999611045356 -7.27447836552
-5.49473431727 -4.12345430447 -10.9729317269
5.59658018963 1.35423032127 -6.32433757316
7.54413868962 -4.23617122899 -15.6791361141
17.716670119 -16.5109942815 -24.2505382491
-6.85741215844 -5.35397532313 -9.54639471946
4.56792317692 -4.29716382448 -9.34980700022
6.42857354038 -3.55440195188 -8.5220945263
3.95599898824 -5.19620069641 -9.26830547998
-6.69254938406 -5.24570885273 -9.62868194276
5.27088624722 -2.97976546312 -9.75201362603
-3.3366934421 -1.12387392775 -9.50214174355
0.0185796583453 -0.370783193258 -9.55481707099
-2.06731726357 -1.38191442305 -10.2650737593
-13.7062717014 -17.9993767699 -27.4012526479
-14.5125062236 -0.68877944239 -4.12908452274
-7.24467820359 2.43850037531 9.59735417169
3.56553598074 -3.64336896148 -17.2630877583
-0.293153991129 0.450196039129 2.67585435162
3.81162896912 -3.43693352746 -16.5442140867
-1.27443963978 -6.60500997854 -17.9015977873
0.833826803752 -0.250671394556 2.19783394498
3.33068414006 -2.39396801756 -14.3017290997
-22.5302724715 -24.1093913258 -20.4974197189
-9.04232338929 -2.49454303906 1.04124412938
-4.43929095775 0.540479839939 -0.638263096813
-21.5976335153 -8.06776606159 -14.3822483873
-2.00594072737 -5.8397788494 -9.27456100597
-9.42246162466 -1.00379095379 2.9520764128
-9.20220307546 -8.87527808717 -21.5454506495
1.19102801996 0.0552407789267 2.50328289559
1.15730945069 0.654630235352 1.24067442795
67.524589068 -20.4157133602 -30.844684628
0.519695297858 -1.61797424552 -12.2323639912
-22.5569629058 -10.6191629357 -32.5613607782
-17.1264235427 -8.75477471998 -29.6081587789
0.28427510793 0.66949235597 -0.742980611763
-25.8416290536 -8.19724784096 -24.595342408
-22.7311567879 -8.61307117586 -27.9874462668
0.901714501972 1.25802605441 -0.904193958646
-3.7690278739 1.23640676687 3.17041708261
-0.303605998824 -1.73532925021 -10.4957994026
0.278660763244 0.332954343405 0.214868208093
-1.40475890054 0.58454503506 2.50797002252
1.88692147881 2.34185557343 -2.01677064283
1.42667568495 1.69755148182 -1.3958451729
0.67108214136 6.87068301211 28.3063965398
-27.474388712 -5.19948623608 -8.51615805233
1.03022060791 0.394410889983 2.47641533835
-18.5166270992 -0.815402051636 10.2944514771
-5.5664387096 8.35348771594 4.42464069709
-0.867457374972 3.28572301874 8.17382577335
6.1913259935 2.16916843038 -5.8284198854
3.26706159001 -0.00701187163208 0.538791045759
1.21473130436 0.625763178426 0.776360546015
1.79907102657 0.672884099328 1.03354200938
-29.4410793168 -98.1826064421 -110.641475974
-2.48121752922 -0.301970639259 3.1434955429
4.08793639452 -2.35637167865 -14.3591136923
-6.29024236096 -4.2618699869 -5.27974534725
-12.7469698716 2.23856256471 3.54914422768
-1.03936165188 -5.11489113246 -19.3531133532
-1.504650101 2.7379782484 9.03768902465
7.11946592501 -3.26014211708 -8.16547463949
6.65935635202 -1.13406680719 -9.17832071272
-39.2000776774 -33.4662998916 -27.4640747514
6.23042350291 2.23602458863 -5.48542588364
-26.953659861 -13.1167371368 -13.6243525546
-16.5654410401 -0.326132842727 3.47676299221
-9.42521766103 4.10192904368 8.42628950346
22.6519914155 -21.7855294636 -29.916713804
8.19471558772 -6.10408016157 -15.5139936615
0.400329476039 -3.44912187694 -14.4883361804
0.408649429304 -4.62768396911 -14.2362375537
-44.0357632001 -30.8485110084 -25.0417515169
-1.65497132445 0.324927298822 2.67761671487
-0.836194155644 -1.8042257636 -10.5981635133
-4.05839957055 1.03101760259 2.44191633706
2.84819509761 -0.299450930518 -10.1578434364
-3.38771655595 -1.43572658322 -8.92700272832
0.124769945874 0.440437414296 -7.14190694278
-8.24777524261 -5.75667261056 -4.76693818344
-6.9055849598 -4.1313479296 -10.3648272871
-16.1639816102 -2.18574187818 5.27596746514
0.823566140151 -6.28675534614 -18.5266516328
-4.56315322741 1.07563264803 -4.07131004689
-10.6475721988 -2.55358208313 1.30903444329
-9.21044320446 0.254512588515 2.53312953011
1.7940191686 -0.286950690569 2.31000844437
-4.82216778793 0.683678983562 0.523867939662
-19.1099246873 -3.93877234281 5.21247809092
6.38610005397 -6.06490792128 -12.8255352309
0.587062660371 -1.40791661802 -9.67367839827
0.652395718444 -1.4059474347 -9.97646521915
-7.93035891203 -3.76470108541 -8.41655142269
-9.51438836963 -5.28752619583 -2.00353904335
8.93340030612 -12.7294806523 -28.8371125222
7.57124421968 -0.177253322693 -5.34850940298
4.43090555146 -2.33039154285 -11.068110145
6.34313556857 -3.02359794594 -14.9359477725
-12.9548444954 -0.189124087918 -2.34539398491
-11.825333989 -5.23970220917 -4.84853630677
-12.3672378463 -2.90972009679 2.97032554585
-13.7654134628 -3.39900596366 -2.29807049212
3.99915802821 -2.26739369187 -14.1457323121
-10.599888037 -9.38218068974 -12.4077647072
1.76607300294 0.326819393849 1.8871359541
-1.3933566695 -1.53905941479 -9.73222967251
-1.40392791268 -1.49759949087 -9.5882261493
-0.0405141862223 0.0708660025939 0.56950051525
-0.954191998651 -4.13355751947 -12.8798684284
-3.67729012714 -1.74860609015 -10.0355266523
2.53905187929 -0.179371679842 1.4028916162
-0.0725999965376 0.183928291624 0.56217541705
6.46826289749 1.40015531989 -6.3385949149
0.0586987205443 -4.42119903731 -13.4446414633
-0.210327164041 -0.0318157384472 0.529525728257
-10.880627353 -22.7419083802 -23.5586265225
-1.9635380989 0.542227557868 -0.510897628145
-0.981536514632 0.348473626429 2.74160044326
-19.2199559233 -21.7150752069 -24.9107666432
4.79107455027 -2.99324797004 -16.1694225505
0.901615951286 -4.46584720291 -14.1715012874
-3.216176938 0.59735827666 -0.434739721278
7.60972258168 -0.834526101117 -3.47996879645
-26.4477838689 -6.71789234214 -21.6801490928
-18.5741458853 -8.11622165606 -27.6656416118
0.391309741609 -0.0821468180194 1.87778634887
-6.44570974918 1.77996821366 9.86329454327
0.0748549101674 -4.58568273677 -14.332278851
4.11511316892 1.71362159506 7.82618077482
-0.322713456374 2.42498528454 7.47281985224
-4.66606400183 2.80977809603 10.1415867533
0.812921636743 -3.63961771385 -10.985459362
-11.2799370386 -5.07565161466 -13.8212445577
-1.6731036928 2.53692277801 7.65134098295
0.769035603185 -3.70658998261 -11.0607856829
-7.31456466122 -4.55776493932 -8.66366297617
1.41697391047 -2.12092412974 -10.7897141866
-22.647568666 -19.8801646473 -24.8242797188
10.7444237043 -6.29745638027 -12.6394312051
-0.807255689577 3.55835482085 -5.56904969486
-7.49800928746 1.85358837465 7.99502013037
4.4490790361 1.28534368721 -5.01123178181
-2.0900483237 1.04690004624 2.31033998203
6.9502001036 -0.74393399945 -10.1415861652
4.5882971493 -2.13114427051 -14.1735858266
-3.38822390934 0.573411206512 3.26229918871
5.21366805293 -2.15059833048 -9.98230084657
-13.8122458899 -1.42121761396 -5.79606349486
0.237875548118 -1.99595671154 -11.9613995584
-28.6013936085 -17.6228380031 -24.2381775224
-42.8023460897 -35.3182836735 -33.1073829942
-39.6298755317 -19.4254910523 -42.252832701
-11.8853674746 -3.11907061773 -9.46040228492
1.13715072193 -1.56574880398 -10.1921795167
2.65131835973 -3.82051426821 -15.2979888938
8.02174644004 -6.59878606884 -14.8474095396
-18.0615790693 -1.3768540981 1.61154142306
-0.0293008076713 -1.81109342513 -11.380601209
9.00191431926 -3.25807277178 -9.35967950535
6.14652236682 -2.72217239983 -9.12407677242
6.4564525852 -0.717003234559 -11.1709044614
-5.36730783467 0.24536567408 -1.8515347818
-30.014871797 -13.8846659336 -24.3036738094
1.11481707316 0.533175476866 1.56062945345
-4.77171143564 0.158797359468 -2.05956697253
-2.79243075935 -2.40091751663 -11.8413457177
-4.17049663281 -2.52711696434 -11.5928286278
0.19853323401 0.536620444654 2.62736187587
-2.24857307444 -2.87240280168 -12.2227015932
5.87832112502 -0.502328824825 -10.8156222953
-0.213215507002 0.144943003752 2.69203288683
-2.57876787477 0.80227964714 1.62782290597
5.73862275533 -4.20572582666 -5.69522304207
-1.74929834384 1.00737925209 2.3591678002
2.72320367399 -35.5872422012 -46.0051675288
-3.11250018191 2.57221978217 11.3836292777
-12.3060905851 -2.80509365715 2.89313889358
-41.0292793994 -19.7652178751 -44.5931342976
4.27543521697 1.30803687973 -4.91395265698
-10.577625214 -9.43885174213 -12.2600607572
-3.25541027463 4.3440745767 7.68710528309
-10.2147376362 2.34526227934 10.266604445
-9.83254382115 3.66179623666 8.8911557348
-8.75941744855 -3.63836846589 -1.84428348892
-3.71421184198 2.29877208482 -1.11068391503
-9.92276843863 3.39341129434 8.98876379036
-7.96220676714 -3.85278844556 -8.38300307751
-7.79931417475 -3.40875637346 -8.84252617434
3.70958246589 -2.96045435143 -12.3757245629
5.11029313891 -2.19961923971 -9.75851170529
-6.19043442987 -9.29273179722 -9.22072559257
4.10677898342 0.23141623917 -8.00683042061
-2.30320680617 -5.2138921952 -16.4894150564
5.60113714134 -3.47947701515 -9.35379536871
3.86552150719 -3.77810803843 -5.75053921019
7.85433568559 -0.608513384308 -7.06873922262
5.58524340288 -3.28935664733 -9.53547981296
4.1453137304 -3.53887982856 -10.4403843943
-3.76893748516 -3.27452939506 -10.4791097123
-7.91520008808 -3.58586808554 -8.6018289149
-4.0173568663 -5.74189461183 -11.4167178421
-7.51756173209 -2.86729029204 -9.2662042391
-7.74545154785 -4.48097066492 -8.3214384222
-5.11722693423 -1.16689965348 -7.50058347595
2.88613145879 1.25983488609 -4.00884758852
-1.52550555494 -1.72387637812 -10.1774650527
2.80256199714 1.28591281738 -3.8763310358
2.07396829497 -6.51970414155 -13.6523872559
4.21206982858 1.36485183212 -4.66929245227
5.54811544802 0.582948493927 -2.89632148672
-13.5134380808 2.62112965897 4.4459660831
-1.13415588587 -6.11197902045 -21.4897098031
3.45635575463 -4.76259193573 -15.6761348639
-2.12597421602 -1.33294149626 -12.649840041
-7.67292289273 -7.77751522166 -11.3742587779
7.66564629036 -3.34701085403 -14.5303721558
7.56956835963 -3.85367555646 -8.52153492006
3.58076456201 -6.15797241893 -14.7566479552
-3.29236135072 -3.90646247263 -11.0924698168
7.69345061026 -6.25505866279 -15.6297007512
-9.00797126594 -1.94383809684 -8.42697057095
-7.69170457003 -2.51601355397 -9.48032414861
-4.47311340926 -0.758404858965 -5.54456267737
-0.93427446515 -3.8543304764 -10.3282707135
3.87700915709 -0.662187325609 -6.71597611983
4.83056624058 -2.48336049454 -10.1698603337
4.93372686818 -2.27545891246 -10.2148935124
-9.98361543906 0.380702479634 6.16845497831
-16.5577858498 -0.76886444046 3.36997224767
-5.5383147436 1.91773056628 9.76183816386
-0.178489030043 0.120479104938 2.97623633697
3.00541638576 -4.51033051338 -15.1461538926
2.01037329307 -4.33140451906 -14.6394933132
0.828201560313 -0.381755058623 2.8059665554
3.7707888247 -2.82343107483 -15.8112437993
5.44985363541 -3.65967252109 -16.3192442833
8.95020253206 -1.68974028974 -5.1864483678
-24.7343260717 -8.60529766242 -27.1881975878
-1.29825395779 0.173930854836 2.69521804132
-2.24479249742 0.449936814549 0.031261435418
-3.55844654955 0.60757236507 -0.542839457921
-3.44946521863 0.572498760327 -0.555446636518
-4.46611117175 0.225806485803 -1.52484492436
-17.3407343451 -2.40639453257 8.02528460043
4.45156386668 -4.67151134363 -15.6234259365
-0.406091034919 -1.99055319276 -11.754561755
8.30506471919 -3.83040242805 -14.2221037036
1.05911654809 -2.0817218052 -12.6633712651
0.765042743461 -0.227553701781 2.92393419994
-1.24954677801 -1.63112311648 -10.3275334472
4.46715579456 -3.74740579976 -15.8572995201
-6.74381019937 1.3921276958 8.82707237876
8.06880709561 -3.63542187737 -15.3582623785
1.18591811085 -1.79137253849 -14.9055368972
5.71886136276 -3.00315366463 -16.5537112273
-8.31231039891 -3.18877411772 -2.33818425075
-13.597645779 -1.77502485806 -2.88506101773
0.0582667710046 -4.58494160298 -13.8664164484
-1.33710672411 -4.20069166888 -13.6327874517
-0.214294581299 -0.0893126796521 0.525835893596
5.82630347746 -3.5726901247 -9.25976138874
4.38422541133 -4.9800352295 -9.83204640185
-13.9083230185 -0.755948150587 -3.94809116679
0.57587625107 0.833385010564 2.35435623798
-1.80679837061 -3.72401829472 -12.38957408
-21.3218760555 -27.7710366212 -17.9773046494
-1.05500404463 0.813633843282 2.52000680233
-1.92876724966 0.499688306017 0.0173386293855
-1.36512866142 0.610170509728 2.56795945483
4.2290419924 1.3007450972 -4.81079781832
-8.63810150231 -2.16549258117 1.07943510912
-5.01570818507 -2.34508618025 -10.8688890237
13.9158753006 7.31912567016 15.7766004612
-0.111539267071 0.275584984091 -0.858682726185
-1.69274503112 -3.6030431112 -11.5508029655
12.1697316752 7.5249193138 43.1062415084
-2.7625525035 1.71142406116 -2.59114616061
12.3581397129 16.9354944094 17.3934705129
-0.770395011016 -4.50401050153 -12.2743719069
-1.40930315398 -2.80339215423 -11.5444723397
-1.01515372402 0.547391285265 0.398966692928
5.39346700264 0.247596124451 -4.670435518
6.54974503578 0.0197303701947 -5.14363525324
-18.0880044424 -0.986309892315 1.29692303485
-1.47223467802 -3.4178465714 -9.99520635332
8.42534266354 -21.4626486529 -23.3490135818
3.37874033014 -6.07884135605 -14.6027976243
-4.88409313035 -5.70348806791 -11.0462303535
-1.40681497784 -0.425934152759 -8.88689362095
-16.0338281246 -0.0585708568158 -1.92431413434
4.97765179923 -1.48875949495 -6.34119029114
6.98577650037 0.368230333327 -4.00138084988
5.02881309867 0.850331541431 -3.20390814391
-4.99537647 2.33738175802 9.7816781726
-14.3723765265 -1.48389903708 -0.884210830755
-0.0378534746764 -0.0456959067366 0.560371149015
4.7647910484 1.44165594371 -4.74500744459
-7.25926987245 -5.22615830986 -8.41546903253
-12.7302540273 -4.47681179185 -3.19399307416
-7.74521438498 -3.98289950611 -8.47293761336
53.5438019357 -0.477445832949 11.2696747236
-9.65509947391 -3.21224728288 -0.886106125042
-4.50913015806 -1.71623026766 -9.78443583589
4.41382680606 0.420189105821 -7.60014926586
-4.27167923146 0.520432869023 2.6925018684
-17.6297671722 -0.86613434399 1.42618897521
-29.0349421005 -20.491505914 -20.3235450529
2.61343653878 -0.149928464216 1.82974089573
-3.42199961205 0.180091724019 -1.99693528778
1.59188045376 -4.76872930935 -14.3848500106
-0.0401802562111 0.189641661349 0.575622677934
-1.04389498672 -4.20764484746 -10.3147033677
-14.4045724188 0.285514251544 -0.71524895973
-14.0035925939 2.99706737289 5.18056048592
-5.81480144146 0.352958297261 2.14750297032
-14.1559122319 2.63216208007 5.70174731474
9.67950054588 -14.4554748453 -27.3853887547
24.0409817801 -7.11199399894 -29.2877500012
4.45030528779 -2.44023304611 -14.7791248267
4.45455827065 -2.43307987827 -14.8936828949
-3.57956380526 -3.57526051564 -11.2356046565
-7.38059528623 -2.35875837589 -9.32998783262
7.58029771935 -3.59210278864 -7.82711215243
4.12061506364 -2.59349881473 -14.8963762987
5.16881309853 -3.41551523452 -16.2603756655
-7.43163776043 -3.70339366855 -8.97613709391
-2.7532080686 -0.637947580517 -7.2405338647
2.71060699078 -0.00600383978349 1.36397523369
0.647220326803 0.375709521517 0.302748068119
0.327456039187 -6.12962011091 -21.8779798215
-0.530177142596 -5.59219429094 -20.6810411193
-0.445295473568 -1.42258321166 -11.4274018541
0.660192632174 -1.50664707357 -12.0361581131
4.84997997967 -7.46554391661 -27.9744357238
0.471589218075 0.358978913325 0.316730380062
4.15138484613 -0.676331905636 -6.59332332955
0.928703841884 -1.77918264449 -12.6424102459
8.58474431382 11.3194284578 39.271899541
5.66471668773 -2.08051073998 -14.3672414482
3.99961727844 -2.40766094565 -14.5137172189
21.6461637145 -0.651873723246 7.55926968298
-14.1186571143 -3.86489036791 0.776880438044
-9.42316729341 -1.57576534712 3.11607765766
-12.8000230393 -0.263610496532 6.53847311405
-8.90636944199 -1.49077784208 1.53806555825
16.9889628915 3.84312819394 16.2334544502
60.5343970141 -19.9421994918 -30.3121469991
-4.06249964989 -3.84355911219 -11.2787887589
-2.44551697375 -1.58736927248 -9.67842602084
-12.7826013751 -9.52492344303 -22.8765515617
-22.5048049547 -7.73173153558 -25.1591543544
2.63292528098 1.4180658978 -3.52119086522
3.62956126161 0.349975352139 0.837745383083
-1.02950346534 -5.46018743213 -14.7104507579
-13.5557719544 -1.86752992071 -4.77152736682
-43.5235773912 -34.5158029941 -34.8569330842
13.9567929769 8.50414142657 37.9323936142
17.3697999544 2.56959935471 14.8813150897
13.0896542356 5.35835395323 25.867730056
-0.274186048345 0.843544784453 2.00278028559
-39.5087432179 -33.1355234403 -28.2606805813
-37.6479045789 -14.7878657942 6.27603825445
-28.0623838483 -3.16046938917 4.00306458994
-13.0432205299 -19.931325436 -26.9286389285
4.02349847905 2.52124920477 -3.58439733048
-38.391768251 -20.3052405961 -40.817650862
-29.7884653902 -6.94437620203 6.91395025971
5.79227630992 1.55648245936 -5.85572548166
-24.3593326981 -62.456918349 -71.1141153633
-12.8409704201 2.16147010121 7.19560146081
-37.2526272667 -40.7363802075 -39.524243498
-25.5123187797 -3.1582798491 -4.88866317115
6.2582552026 0.147915354038 -3.90833718438
2.10527321378 1.23542241575 -2.16012690066
-0.216648831511 0.155375456017 0.513614851731
6.50971622784 1.31202145071 -6.78422745061
-0.0627120581458 0.0520751500629 0.525040191963
7.46652658986 -0.028352699679 -3.82637279026
0.219541308407 0.523430548326 2.59622620899
4.02475003182 1.33321521655 -4.76986606646
6.82222289798 0.253663658287 -3.38819107679
-4.28733170726 -3.20732911245 -10.7685229351
-9.07475711367 -0.170896184273 -3.41378850408
-11.506435106 0.011440314358 -1.8124871872
8.31047059632 -3.58023973243 -15.1366405768
-13.5214773865 -12.8886880369 -25.1500194978
12.153338755 11.9343576373 42.5474033854
4.54268761461 0.66130797217 -3.6634088074
0.504858108141 -4.41111017325 -10.8018136054
-0.017782820443 -1.9641161241 -11.1924032909
-2.21887653666 -1.70561233685 -10.5174722447
7.51684892912 -4.12562765678 -15.301043336
0.165671837217 0.0144605263829 3.58972243245
11.3543318358 12.3193152424 37.5662038896
15.0736581899 11.2642109992 29.8545338784
9.25456698285 -7.98558439493 -25.4776208316
-6.34662118027 1.8772246101 9.73383618081
5.70488538845 -3.74685787958 -9.66218313243
3.81681163366 -3.13680671788 -10.2815724305
-23.1728984345 -22.484368523 -22.1369990836
5.41717636375 -2.02119817922 -10.2545306494
1.03196296737 -2.45418995323 -10.4862392923
-9.61051668339 4.95079370426 16.3754374698
-16.7598758395 -0.500209840967 3.68003332271
-26.4312474338 -18.2116987587 -25.386026309
-1.22188602332 -3.25797267743 -11.9172055129
0.359845414375 0.357250428874 0.308334908495
-2.79468212907 -1.30698636821 -9.47897453806
19.8243518834 -0.172203693508 1.05846055775
4.09625496513 1.51613664041 -4.39759032771
2.9911607807 0.537879763309 -8.22244329474
7.03698515744 -1.08642353874 -7.95225316104
4.99831075873 1.41486021934 -4.96686107998
10.4221110473 -25.5643657421 -48.9884025373
-7.45073580967 0.195735869708 -1.92097420855
-12.6643488582 -14.1196403668 -23.0801185801
1.08462062573 -1.56346599845 -10.9946781006
-16.4294397346 0.491183030234 1.97363259918
-15.9361145734 -19.8929406112 -27.2526922342
0.125277142912 -2.87534822513 -14.1693215012
-1.92897357781 -3.68424639503 -9.85872799749
-1.76037936149 -3.87888681516 -9.3379468538
-3.40321380713 -3.69165421656 -7.2370720044
7.45873179285 -4.58036529856 -16.2848554369
-8.65952904912 3.58066115506 8.19356297322
8.98235682509 -4.54216401065 -13.6621121369
9.07713727567 -5.03428644004 -13.546389097
8.48291874891 -3.46912264824 -12.8358311618
8.79809299511 -4.83025643366 -13.1511572465
4.01211252262 -2.25861372307 -14.1170920557
4.10443196341 -2.26145423042 -14.1651441312
4.51129823324 -2.21812325701 -14.2605640787
-0.0794727789412 0.795302193261 2.55014441484
5.1188159194 -2.34417194533 -15.0049401796
-11.568016967 1.51301092266 0.196882783432
-0.284262794669 0.339564509855 2.69601599167
-18.0381014287 -0.199676191607 0.717106264372
4.96080891956 -2.25465559242 -14.7382190902
4.44367826812 -2.3353135679 -14.5386631517
-4.43467369161 0.103475089461 -2.08800377124
-6.62191279892 -6.17331402596 -7.96144223216
6.18780450855 -0.848254629737 -11.3602201952
4.92690895569 -2.24267546285 -14.5682071766
4.7123699149 -2.12693403926 -14.2244626846
6.92045125675 -0.680998959091 -3.0034340999
-12.3599247384 -20.6786770049 -25.5664458776
0.357540948129 0.79947539759 2.44711461366
-0.981522353487 0.245265013465 2.74261461523
-5.48043738425 -3.97648960054 -5.18576153886
-0.276437331266 0.605381626817 2.44336300663
-0.0631556323252 0.442994958562 2.49427282384
-0.702949474644 -1.49867750948 -9.15432008422
5.30703702645 0.824535326915 -3.32696015797
-25.9200093145 -11.0788013082 -14.8659635531
-0.0994244293059 0.428616313845 2.64598466205
-0.144408738327 0.165338603246 2.79369269822
0.265645925642 -1.88618938725 -10.5813673342
-19.9986849814 -14.718425046 -29.2887953756
-26.2530436947 -11.3004290613 -16.1137880758
-19.7352736197 -15.6142974043 -27.1996932707
1.75862153276 2.26471173655 -1.89455016375
1.1588900043 2.228153316 -1.71356256595
8.83059207701 -31.4418330165 -42.5534939105
7.71832520808 -2.7675186973 -9.58461321517
-2.8853654311 0.527780795692 -0.73804380235
6.06153226147 -0.513305384364 -10.5307785268
-2.78935844765 0.667883529779 -1.72805085751
4.0421123169 -2.20026278731 -13.4578782595
-2.9026186416 0.0768200786168 -2.20959543776
5.57699014913 -0.720027164053 -11.1798533044
-1.4297767865 -1.51530999011 -9.72554096241
-10.1563427142 -3.17590894852 -8.26879153928
0.113360439991 -0.205051549619 3.18766290637
5.63575914378 -0.294475437466 -2.51899995076
0.693885248218 -0.370353897472 2.97242099925
4.09261605663 0.753360842241 -3.60196158557
8.27012548076 -2.0503357046 -2.83283880041
4.96783835951 -2.55470534122 -10.2781075783
8.20402116722 -6.35191515217 -14.1652017077
-9.6701641685 -10.1211056052 -20.4867146791
3.34793873091 -3.54363664249 -15.6004433263
-10.0908008736 -4.76485330701 -7.83147640737
-11.0746179741 -4.60638111979 -6.42472438577
-13.4014864081 -3.36556190801 -0.868680294979
-12.0153156291 2.10058247509 9.70662543232
1.12553447357 0.767795095091 2.23348581756
-11.4165801189 -4.3759467963 -11.0477865944
0.614139226865 -3.42900601919 -13.853979226
0.592128593429 -0.02132844433 2.84771548707
-28.2831819127 -14.6421033538 -21.1630490848
-9.60754236293 -0.95357532815 1.09586875329
-13.2885013952 -22.035932203 -25.2571707699
0.699969102499 0.630579759614 1.15399647426
-19.438845584 -21.846888048 -23.5551231117
-20.3381143376 -15.5808392002 -27.5864480928
-25.0493551707 -10.4061307523 -14.5929542782
1.56598888473 -2.33127672383 -15.5095144071
-29.6895470113 -17.9234444047 -22.5798134692
4.44046012906 -3.16855168402 -10.1794020821
6.21083200834 -1.75667348338 -10.9313977443
6.55730259596 -0.706235172519 -9.62357697239
3.62479018931 -4.76493823738 -16.0751069302
2.88574087524 -0.295703305237 -10.1931722809
2.07568979461 0.0882731145057 0.851457215443
3.45503521243 0.261814266003 0.602534811975
-0.0504764539553 0.15348363318 0.573186920126
0.551804117128 -1.45935224591 -10.040136639
-16.3343084528 -13.8610001329 -29.5297707891
3.12475026762 -0.548753879994 -6.7774712036
5.81412567778 1.00146178288 -7.28757650296
-8.87314749977 -9.63628874935 -11.6555868261
7.25472632466 -0.788563037915 -9.8602620318
-17.1437790338 -16.3531804366 -25.3601140927
6.47653304775 -0.295942641101 -9.50701275729
8.73945291374 -0.787429843398 -10.9872749937
6.9014001046 -3.53757799243 -9.65812757184
8.97183175899 -4.79512599744 -12.7139769237
-0.0642712769129 0.778999490864 2.51132148438
1.01491776634 -1.5707368134 -10.9008514165
0.887560949788 -1.44707259624 -10.463875714
8.51958853978 -5.48924194789 -14.0117821802
-1.16119351727 -1.38999989443 -9.41401387186
1.48107304595 -1.45542529315 -11.114616469
1.08444045566 0.107289033447 2.42385793515
-24.7354233795 -15.79290274 -28.518050129
-46.869997892 -26.7069172384 -35.4715590055
-36.0303206083 -28.6917138149 -45.319156904
5.06918250067 -4.53198754463 -15.9539332234
1.94333727634 -3.86092076646 -13.8780793484
8.96066828628 -4.33913464713 -13.5435365904
-7.48461959487 -12.95046743 -39.8072979871
6.29771726109 -2.56616855316 -14.1764776184
11.5028137067 -17.1679908263 -49.0532564025
19.3532642017 -21.8393931733 -30.9866665052
-7.70413964817 0.404313767849 1.86296524701
-17.3390668093 -14.9622125001 -41.59562741
-39.5244210693 -20.3295476216 -40.4713348335
1.791659428 0.680932886256 2.41139500828
-0.486350419849 0.798589169909 2.6132866761
-7.81274906933 -11.6175103124 -9.63685517504
-4.9819632612 0.938112003326 2.05489564163
2.21179874808 1.44954239085 -2.12777188773
-9.92218345628 -2.14748928425 0.364746954018
-8.59068277449 1.57157576076 2.59099343516
-29.0625729898 -20.5069346191 -20.8086341495
-1.92154857645 -3.99224299298 -12.8078381211
-7.80945707603 -3.59401225225 -8.74984683698
8.48066372899 -3.28579762512 -14.4096266893
5.07394141643 -1.31888387441 -12.0744201335
-13.3258620692 -13.0084563419 -25.5819868993
-1.25766038165 -0.925262374411 -8.37100292441
-2.35326588906 -1.25347606237 -9.10193226282
-10.7837294195 -7.99932528943 -12.9461497627
0.308611502715 -1.28043707986 -11.4549019884
0.0719795029835 0.354225294671 0.331354763119
-0.17281661145 0.352942462859 0.34745420283
-27.5113343101 -3.64640839585 4.01994719914
-11.7823874751 -2.71371188833 -8.0052583113
-7.49580689586 0.8506260498 5.38860272637
23.223101576 0.798482992814 3.29228527474
9.34826952177 -0.447138957361 -6.03155433329
0.334544953984 0.335394089342 0.21481879721
-12.9173509878 -3.58931727151 -0.025341255517
3.67439606642 -4.62350227163 -15.3572313171
-13.2966011467 -3.68747897905 -0.58483990912
17.621780926 -16.5153643761 -24.1935054492
0.276636441515 -1.44464385136 -11.7626822251
-12.3313584792 -4.80411411226 -4.14952696005
1.88370722434 1.61111401117 -2.67702308771
8.63277050834 -4.87204908864 -15.15408491
8.37795082109 -5.14126927467 -15.5647506774
-3.74492337282 -3.27572467024 -10.6561009314
-12.9796457018 2.99048092193 8.21316353142
3.17759723183 -0.0503402044974 0.498861011362
8.68063959014 -5.15480353291 -15.4637773553
2.05189238138 -0.625446508968 -10.8507829761
-23.6004892911 -18.5969559334 -25.0739486468
-3.13105588179 0.601541679307 -0.442811557934
2.61431044601 -5.09481384066 -14.705260257
4.30421170262 0.00750507700439 -10.3828188726
-12.795530851 -22.7925141407 -24.021389303
-21.3987312068 -24.093481316 -20.7419307615
-2.04026604097 0.5070313679 -0.584768006901
-31.0934495369 -7.76925930999 6.39526562593
5.1367665737 -1.83016500065 -12.3813306906
-3.72171095259 1.96881374072 -0.478718695377
-3.19988035419 0.936434056801 11.2438458649
4.80226608356 -0.336483936233 -10.933793869
0.120188505192 4.09623924979 7.36818504066
-0.106759225389 3.98085718097 7.07921895601
-31.3076386958 -7.29005629869 7.57705334219
-2.81453655642 -1.2717612187 -8.95597623488
8.58951178579 -5.69071457951 -14.5225598223
-3.35424830133 0.810958421252 0.233852666641
4.92830458379 -3.83075348162 -15.9610943703
4.27698293944 -4.44717355603 -15.6570561735
30.8055972116 5.09033925962 -5.99271159705
-10.5718444324 0.544494288407 0.0817641232033
49.6139912562 -0.114908432298 -11.790541867
-0.31689323964 0.823758357523 1.84077107039
-27.6757834856 -14.0941181546 -14.1658581166
0.27668052474 -4.81333588546 -14.5721294571
4.70188510234 -2.51417003636 -15.1321496597
3.11306491481 -4.00328654881 -16.8522129243
-10.2784604459 0.509393090414 8.07806595125
-0.735441143075 -2.84843906529 -14.0603515374
3.38001746033 -3.12013093919 -15.5434878612
-19.5261198538 -6.46322685288 -14.463592441
1.22242038991 -6.38152935201 -13.6742550084
-7.04096097396 1.41795101367 7.8708993707
-19.0310221999 -3.31982421549 -7.85635427379
-8.02426547147 2.0896884341 20.0809033909
5.5384128038 0.386239628132 -8.53310386331
-1.82925620639 2.61135958143 3.86953665039
-12.0221082358 -0.842016036464 13.469718666
-7.15949381352 -2.06867770753 -9.80883594499
-15.7331918534 1.23234088635 1.32893351136
-6.25592800347 1.59709494173 9.80905699226
-8.22301734174 2.0792300943 9.28643885449
8.08435987096 -0.952738953953 -7.49130465581
3.50407069805 1.28503376304 -4.31382991346
-17.5968882039 -0.865962324238 9.22501036493
-4.79025663814 -5.33278585135 -10.775075743
-6.18002114595 -5.50459597225 -10.153938984
6.520708753 0.289590269385 -3.39162536812
0.0580089606933 0.734094151023 1.67394019432
0.789883102023 -7.80289165307 -13.0777239059
-0.877647771061 -5.9529469694 -12.7106395468
-7.42228298385 -3.37693315942 -9.18667182634
-0.317934323402 -4.76031628107 -14.384928777
-9.67121941078 -7.40719666627 -12.1191426437
8.02341563232 -5.50832633937 -13.4061896787
7.71509468251 -3.93136193933 -8.54849389188
3.2009721274 1.43195497814 -3.7411475586
9.53064310205 -1.43479823183 -4.294057527
12.0305350103 -1.00730175128 -7.42068669178
5.88490146456 1.08938147157 -7.29474027174
18.3879394084 4.12890298014 5.82646082929
-6.64947336762 0.790497997787 1.16079299403
-2.07627329191 6.52622510478 31.6883499447
6.40854302104 -3.76422621385 -8.71937550456
-3.33122424775 0.312652239741 -1.47418671818
-18.4644705996 -15.1687157621 -28.8041352448
-4.12820752849 0.727023125697 -5.08415315975
0.113803756522 3.35719052632 5.93248703824
-5.02688055202 -2.39673183092 -10.4837966397
6.94217695346 -0.822768188052 -8.21736655693
-4.53833550078 0.275146450582 -1.71562165321
8.6220579878 1.10840085341 -10.1859856381
-14.5687079551 1.3734429263 2.94054668739
-1.62046529245 -4.51963805539 -18.5853543814
0.417113447823 0.0669811687627 2.75574027397
59.9488751222 -14.9291718064 -22.1653547511
3.90268855753 -2.33354955943 -10.4169635447
19.3492923989 0.753696085569 10.0218809993
3.7503488401 -1.4029130989 -7.00738299741
48.190137805 -1.29582998288 8.91220005137
1.28164008731 0.321295024854 -0.745798145229
1.58069285782 0.607501354756 -0.971516201351
1.68825784916 0.707527798866 -1.08097270332
1.64549478851 0.679760027273 -1.06670257207
0.228304814276 2.24044641649 -1.3452044795
-8.82641417115 -10.0377281453 -20.9539953389
0.146337021626 -1.85422179611 -10.6201046383
1.06291111714 -5.24385535493 -14.3125748927
-0.0547769598928 -0.164999051685 0.534805980921
-0.0649034598766 -0.160536037282 0.543651732066
-0.0415675394564 -0.134594796843 0.546871867939
-0.0436502744186 -0.162032638727 0.526911738115
-0.0615148420812 -0.179528774244 0.550930943314
-1.37929329439 -0.4529553302 -9.04125379316
-0.0354926637588 -0.180397016957 0.537937594978
-11.4734328429 4.41622411229 7.3210977871
-0.0615562793308 -0.189327606523 0.547965463731
-0.0515515047528 -0.195134883116 0.564746995282
3.59446655348 1.06452977902 8.99537930025
-10.2507574038 -1.64151562913 0.323282835827
-14.0224579969 1.10892367157 5.67676544488
-4.60984078894 6.51933176904 11.1485731266
3.97324828188 -2.19745284055 -10.5616511783
-15.2076628485 -0.0492967090528 -2.35391966519
-2.51668638316 -1.56561091452 -10.2165290174
-7.55042896829 -6.83614986369 -11.5155711879
6.67495648823 -1.20734799249 -9.19985062839
-10.7003556658 4.05445121204 6.42507740832
-13.4254366307 -0.279285459872 0.984408542317
-3.1727140017 -0.272651392164 -3.36943646379
-7.97984155829 0.437357484867 2.22224090535
15.9955424446 6.42252557347 15.5373203867
-8.02659661908 -5.94947602007 -24.6558049401
4.27630518717 -1.03976104685 -7.01447091486
1.52242652029 -10.6390561723 -34.9152390392
-46.3071912395 -23.21713036 -35.0277195732
0.962908717528 1.18588517357 -0.947699382082
14.8723158322 6.44211289798 10.1199372957
-44.1538734555 -29.6049391133 -22.886747306
9.02594372398 -4.30897067386 -13.7617640834
-2.20756333375 -0.486710796377 3.23839924163
0.518619300002 0.296060114644 -0.587495545857
-0.446480276578 0.412976476605 2.58675673682
7.77778407389 -4.6512395162 -16.5855620014
-0.844285047805 0.726391301709 2.58603396617
-0.405710595011 0.666670590122 2.74889991259
-8.8319616682 0.20636173723 -1.49119724695
-10.148305509 -2.72683022357 -0.261402996055
19.5864293841 -19.6513473786 -21.72322949
-1.81689739546 0.164360603312 0.0271407140532
5.31975079441 1.42853952744 -6.84011665228
6.45139987758 2.46129577165 -5.21933438902
5.37150169966 1.53453587749 -6.7153927804
-1.66388559837 0.517825733763 -6.65863899991
-22.8151597814 -1.59694086967 -2.06876570053
0.0778823018279 -0.228361756764 0.568194592536
-11.3595440876 4.25097670638 7.70020782559
-2.45136741907 0.712303586213 1.44580535364
-20.4267885567 -5.18049040487 3.68945984735
4.97069635517 -4.42492714802 -9.42951834066
-13.1928330319 1.81995780027 6.89959765837
-19.6093685836 -2.84126520035 1.19571049228
-1.07007384426 0.602580421574 1.1410133095
-7.01091562503 -8.20556889264 -15.2591934936
-3.26542016752 -1.30479300637 -8.48265044211
7.13496142961 1.72114859911 -6.49551288829
-10.234611846 -12.9668953689 -11.6099155959
-11.3822618668 2.86474457449 8.03981484634
4.63740365233 0.659991752206 -7.43186999332
0.538943745714 -1.56121019235 -10.1078122755
-6.56966279428 2.01586176009 10.0155397891
-11.8772836242 2.76192335241 7.85429808481
6.26133059799 -3.968463129 -8.85776917746
3.95201382307 -2.42769588953 -14.6039860685
1.00758174184 0.82577341621 2.34370273539
-10.7168382061 -8.59630902313 -12.6900896154
4.30876986205 -4.37810565631 -10.2851267315
2.8884305542 1.86051428451 -2.7227053729
-0.792329065282 -6.81094488703 -14.9358576473
0.310707514401 -3.50452237444 -13.8620444137
-16.8056086793 -0.214577274065 1.03108027221
0.0276836635112 -3.57612399452 -13.4133332316
2.97167745426 -2.83551877733 -15.2097601385
-9.74530073659 1.35818536111 8.2154290281
-0.850587141425 -3.7881559088 -13.3011032908
-7.21227206559 -8.72482372095 -18.4221900387
0.792711736448 1.57660840099 -1.10722800622
-5.36795069309 -2.88805838175 -5.94810831799
-8.89475258909 -2.46392418225 -1.94797298665
-1.23158640737 -3.82190635761 -12.6176191028
-1.10815216968 -1.70415620009 -11.5832267914
-11.0757225295 1.5373136433 1.88022515869
-7.0055373672 -2.8136845145 -4.22341765143
0.014659026373 0.54986850103 -6.9320717279
2.93081623371 1.84823722973 -3.39297027116
-4.41768562921 -4.27989253759 -6.12711524276
2.33332263551 -0.256179001011 -12.0294224786
2.97281671043 0.272808818086 0.726184626102
2.55953985239 -0.142412111998 -11.5748694139
-20.5080147588 -15.8622228647 -28.4982789086
18.382765674 -0.564534230144 10.246329385
2.98723043834 -4.57624794952 -15.1388638129
0.067390868031 -5.80615728339 -13.3884949636
2.40826997237 -0.0933512164099 2.22688781633
2.49267793127 -0.181946742653 0.980130311277
-8.99593425474 -1.54008899542 1.66368302839
2.5576094133 -0.0876950163331 1.48371698665
-1.91237565319 -3.80300663543 -9.63777374106
-8.92061053401 1.41447170395 9.76878764554
-0.809352360949 -4.04360485469 -10.8902424873
4.59197906134 -4.66545377898 -18.9253455317
-1.96385923657 -1.41979402978 -9.16154937697
3.48324962659 -1.3332891214 -6.88943725859
-2.29320280156 -1.61757656837 -10.3591108625
-0.0178339165135 -4.47739249511 -11.3713736076
-9.39066549011 -1.53196756516 0.915870101561
-1.45125690336 -1.60624520099 -9.86935223149
-1.11188717165 -1.30591216467 -8.94354898721
-1.53985646161 -1.5071692384 -9.59971135094
-1.72048762521 -1.54341581994 -9.80383663828
1.27564509379 -0.372222284081 2.2170010262
2.246771649 0.382465305929 2.34527943454
2.6967335319 -0.166975010359 1.87958076915
0.467141102314 -1.72147901292 -11.1118913687
3.03446263426 -2.23436762457 -13.8853798576
-2.52172212587 -0.818695870103 -8.0058585541
4.63113356664 0.668772638873 -7.04269158282
2.38382612607 0.290341249126 0.163189277925
-42.2883359177 -20.1896496021 -47.7123484062
2.02217864561 0.831731760599 -0.838869126183
2.05387836592 1.89668598127 -2.67497968542
2.03477408209 1.68895433876 -2.83552763831
0.110917518069 1.99739832214 9.75632870064
11.3057298437 -4.55785719283 -9.03384311588
-24.5057214498 -8.60527705878 -26.7896807288
-22.3607960635 -7.25012685399 -24.8414601789
-13.3332892451 1.43663657192 5.91515326626
-41.0169763496 -32.3504744296 -25.9543542867
-4.35823676431 6.4612725638 9.14840153569
0.96517232371 8.20270073857 8.11764374459
-10.4216438756 -13.1042818478 -11.8453322496
-8.13958293119 -0.585177041657 19.2452549371
-14.3235499334 1.14480546769 5.81140101564
-1.94859650781 -1.22446812508 -9.10301655377
-2.12473041541 -1.4430696848 -10.540559683
4.79667833863 -4.08085192396 -15.9554931701
-11.4177829152 1.78291420313 8.41545671575
-1.56834055071 0.383185470064 -0.0469279084011
-0.000721523112239 -1.90214034404 -11.1679139347
-2.09736244174 -1.50847740458 -9.49599693257
8.19120489913 -2.04512592504 -13.9261989381
-6.37944349781 -0.113935124143 -2.88992966518
8.56093661001 -5.5974521904 -13.5566380175
8.21096325591 -3.23217346579 -15.2076855032
7.74535185967 -6.51345341833 -11.6030486922
-13.7840635877 -1.01311867986 -1.40249673258
7.64873410837 -1.02360380185 -9.08862763061
-5.04364207748 -10.8981233666 -8.19538665827
-23.2183938572 -14.2466288912 -25.2797438685
4.85835401509 -3.45293858607 -16.4339773465
2.43573148549 -0.169093413745 1.48439937793
2.21849589563 -2.92722369384 -15.1931569819
-6.20761654716 -3.23408224199 -10.0063986751
3.69471492949 1.07278509115 -5.06807304216
-27.8937518203 -7.16561324578 -13.1850125065
-10.7499801899 1.67438415397 4.35134209148
4.35103568506 0.822482160967 -6.12475541273
-5.3789537135 -0.441648656642 -4.13664334557
14.3942144432 -19.0642645352 -53.8915158062
3.84429211071 1.43411776617 -4.32569682504
6.63913132421 -0.465397571124 -2.97917962001
2.42121131058 -0.0919827112173 2.23255165522
-9.2280026193 -1.53136196104 3.17167950475
2.66129185223 -0.684982673516 2.39802924164
-14.118301703 -12.4078680501 -34.5597801016
-34.0668954139 -27.1866808452 -45.2533771908
-0.508304060356 -1.76521007773 -11.0044563483
-22.1159545837 -3.6768682813 0.26172020387
-0.119662967615 -1.65615452267 -10.8855476875
-13.9996359212 -2.02025136909 -6.6258714344
4.85890758766 -1.27857133602 -7.06790133683
-7.67149926278 -0.09224394786 -2.93133161973
3.81680534147 -2.32922518479 -14.1962180634
-0.183541371502 -0.0893839397354 0.535623471082
0.140497900423 -3.98580259637 -14.1435361539
0.44110563465 -2.75949390564 -14.0394932816
-2.7499393257 -4.36962291063 -11.2899662704
-2.53221757446 -1.37598751647 -8.73836900713
5.31460322739 -2.37796155453 -15.1661157575
2.26719393203 -2.9033324866 -15.7097261225
6.32497315966 -7.6542921234 -15.0161505624
3.8643048135 -2.33270520132 -10.7586909737
3.97427014506 -2.61645146825 -15.0437068329
5.90768005022 0.0754081964874 -9.18761433882
4.08854143515 -2.50805090583 -10.0407792571
-6.24397872746 1.67471396911 9.72920340622
0.799665683096 -1.70676577807 -10.366683184
1.83455902617 -0.0918803052421 0.998223356266
-0.118463317776 -1.73878960397 -12.2258868881
7.54945671175 -5.05075307011 -15.8628826857
-10.7666225485 -12.9584104299 -13.5771792558
4.57366857414 -2.45940704836 -10.4376034386
4.05623792235 -2.51906728279 -14.7778794435
3.88536790494 -3.30911720053 -10.0957295638
-0.0505016237696 0.115209678183 0.572532485042
15.7018447747 -17.9074776827 -23.4752744131
-5.05495569893 -2.39827552807 -10.5794485565
-5.35169922274 -2.05150288985 -9.9706073315
-9.7607766802 -2.76240748762 -1.13145246931
-15.9867153888 1.05044871289 1.79617725376
5.86739246364 1.1632443762 -6.79632438576
-12.5045354408 3.26965639598 6.61635157397
1.76044948368 -1.47536577004 -11.0299395529
8.20696116236 -4.87500424948 -14.7215808873
-2.64366361852 -1.29850043077 -9.55680292932
-0.537457633496 -6.1216138948 -21.2645659367
1.97546273874 -0.219655404247 2.2676306423
-6.25177014052 -2.62842436385 -5.71008934161
1.77454680434 2.26409725763 8.85942488609
-11.7230053546 2.19077364906 2.97493055368
-2.53112640742 1.40482271389 -2.99710456609
-8.37903988793 -0.775059085366 2.14692332534
1.59898354735 -0.54937722222 2.26083353768
-0.523979106526 -6.07244985373 -12.89004232
14.7200495594 -4.87347973408 -6.9645103221
-10.2268160409 -1.92012445864 0.319414341306
-3.23194237062 -3.50888123874 -11.2269761667
-1.0378208425 -5.2042520044 -12.6853726798
-0.517909266095 -1.58640575915 -10.2594793335
1.19676144153 1.41643532239 -1.45197182507
-0.299198965388 -5.24899495647 -20.6329440874
0.0595063507272 0.0635343274793 0.42466608308
-8.01385091646 0.692410222539 1.64097514813
2.94743971472 -1.88447542773 -12.453665222
-3.58427053849 0.136158933416 -1.1840460545
-2.02009312356 0.544601333287 0.624846390013
-4.23846319294 -3.23266882334 -10.1756348163
-1.06424828318 0.274650069408 2.65911009157
-9.68247953218 0.381734881711 -0.493421074567
-0.789290926715 0.924183342184 2.06372958043
-1.32980117728 -0.303133494022 2.70899419178
-6.11897350915 -5.18849587825 -9.76505289645
-7.07687798099 1.56945248179 9.5622468065
1.64635004011 -1.63223609331 -12.4474080994
1.9316720795 0.0554852045718 0.76685855892
-15.6102239946 -0.961856881815 10.0165286437
-11.0814540088 2.66427167262 7.82375808245
-13.2074031767 0.135139930586 -2.52473047494
7.24246906094 0.859072219191 -3.20663964012
15.7889152163 -26.764074542 -28.4708324057
1.79161937278 -1.82230129803 -14.613662389
7.66109045676 -3.75314653788 -15.6535844764
3.94086870549 -3.02828605234 -13.8364820554
-13.0071286105 -15.1418056929 -25.1627780219
-1.01883662847 -1.24363576781 -8.95277155632
0.36536374485 0.734224475975 2.30850890716
-44.6664491198 -32.5269015732 -31.9215784623
7.57380140077 -17.9821882011 -25.4918518691
2.94111912876 0.344702951493 2.37213468299
-4.12559310764 -2.06989986563 -7.42744042336
-1.11741015466 -1.07555087776 -10.4551663233
5.89268116309 -2.98190749732 -16.5380492474
0.320809771071 0.343605839739 0.236520981387
-1.36830225465 -0.450019644893 -9.03995799465
0.118388551611 -0.731860368255 -10.284433081
8.42787679126 -2.74415589526 -14.9047009159
4.28695046273 -5.06420829658 -15.3381781853
0.40771897124 -0.00972222928529 -9.00592189192
8.3538830228 -3.04369397763 -14.4687040739
-2.03826169864 -3.22398021454 -10.0308153256
57.8911896807 -15.0210914687 -26.9492554677
-35.3694928204 -17.4611197747 3.99916352686
-32.738355803 -12.4856411362 4.24362633481
0.171358327787 -4.01596086908 -14.0223453044
-0.22734769949 -3.96830594223 -13.9660190291
-13.916046807 -4.11111709888 -0.483536008004
5.43967604401 -3.09698174454 -9.37886037335
-10.7237442974 3.2626899462 4.97092866426
-12.4527651193 0.314158576392 8.50177897909
-12.0244423941 1.26865405482 1.44603804425
7.3384087747 -0.359881459962 -6.71051440521
-10.584763663 3.66353439582 7.26553655522
2.27607655236 0.368189906134 0.569867359663
1.7032476271 -1.53435783461 -11.5348613368
90.8674763506 27.630711593 31.373155311
-0.269827518471 0.562582450439 1.17432366732
-1.41655343996 -3.77786189335 -9.89630045918
-24.3901993866 -31.1904095395 -31.111928369
-0.323348686188 -12.1281849899 -39.9616567013
9.08450664929 -0.76210819758 -7.06918848936
7.79680592309 -0.492277066507 -3.86853193674
-24.303246476 -11.1923144619 -33.0346456973
-46.6467282415 -34.9253618334 -34.3152283852
-48.9265573863 -23.5398206482 -35.194510737
7.76980407166 1.1282069955 -7.33903237094
-22.3315335244 -8.08942568478 -26.3080579771
-25.9309259143 -8.18436203516 -24.1787626502
-38.5736347311 -19.3136795434 -41.4065605324
-6.70314714614 -4.68772024986 -9.93409616603
4.87860337553 -0.537679563836 -10.9246574854
2.79997723661 -6.2567029958 -14.2936841742
7.38278039423 -4.19365606757 -15.6580045476
-4.77796008769 -5.42094733858 -10.9087487978
-1.32184859762 -0.476269992071 -9.07222506513
-4.03036233403 -2.93020483333 -7.53128905337
-7.4689651474 -1.59330335695 2.21850661262
6.13196710839 0.248572591868 -2.97956798993
-1.12656926617 -0.921668797685 -8.26946316994
4.39846287604 -2.44335758161 -14.8651728266
-15.5715306646 -0.0559657579818 5.52629715757
3.84598013376 -2.36190291869 -14.3015089779
19.1331645597 -19.5463267146 -21.6239665547
-7.89024418396 -5.41502014267 -3.66936443599
-4.01847817451 -4.05310788053 -6.79431205208
3.37105015597 -0.552499959108 -4.260053273
11.8807360644 -2.56803153506 -6.38263088469
4.56192122488 1.62991072923 -4.20173241763
-5.09622719859 1.01896762544 2.03818443629
